# .PCD v0.7 - Point Cloud Data file format
VERSION 0.7
FIELDS x y z
SIZE 4 4 4
TYPE F F F
COUNT 1 1 1
WIDTH 196
HEIGHT 1
VIEWPOINT 0 0 0 1 0 0 0
POINTS 196
DATA ascii
-0.28478456 0.4962163 0.12259892
-0.28215685 0.49662918 0.12220511
-0.25801137 0.50296253 0.11933994
-0.2520811 0.5054602 0.12097287
-0.25384748 0.50221264 0.11577666
-0.24605593 0.51522112 0.12098905
-0.24225365 0.51721537 0.12162948
-0.32301915 0.50777543 0.11627069
-0.26950502 0.50925308 0.11520666
-0.24902046 0.50915849 0.11749431
-0.24332176 0.51291263 0.11569786
-0.31182873 0.50323898 0.11533168
-0.29886165 0.50362337 0.11500001
-0.23784867 0.5218485 0.11979121
-0.23357829 0.52487105 0.11699495
-0.2259962 0.56050014 0.11624858
-0.22422592 0.56038409 0.11550915
-0.21519199 0.57424384 0.11855534
-0.21360533 0.5751034 0.11797705
-0.19973189 0.57525212 0.11763534
-0.22536485 0.56347179 0.116119
-0.21855949 0.56603169 0.11589482
-0.21413982 0.58720416 0.12429062
-0.21184826 0.58775556 0.1234549
-0.21473716 0.57952559 0.12011662
-0.20927203 0.58053982 0.11991215
-0.20072895 0.57839227 0.11964649
-0.20761012 0.57506984 0.11576399
-0.19611932 0.57529318 0.11564356
-0.1935692 0.57529318 0.11553642
0.030304613 0.843104 0.12461859
-0.025776144 0.83978009 0.12015024
-0.019008784 0.83978009 0.11986586
-0.007883545 0.83876717 0.1197975
0.00094804307 0.83861601 0.11999825
0.011606012 0.83813411 0.11863217
0.020001529 0.83870053 0.1186538
0.028362755 0.83978009 0.11787546
0.024248084 0.84256023 0.11874679
0.033178501 0.84456968 0.11991677
0.040865444 0.84889925 0.12084064
0.049950697 0.85182595 0.12109035
-0.02504695 0.84077847 0.11792645
-0.017996088 0.84240603 0.11607704
0.0017138659 0.84241194 0.11506769
0.0071519869 0.84174699 0.11528525
0.024187444 0.84166932 0.11730352
0.053559475 0.86133158 0.1248261
0.059337988 0.86472541 0.12426206
0.50434077 0.99290901 0.11948943
0.50879407 0.99351376 0.12028369
0.49408025 1.0022563 0.12365001
0.49957919 0.99834806 0.12279603
0.51518714 0.99748152 0.12073413
0.51711118 0.99748152 0.12065327
0.49482933 0.99925476 0.11588702
0.49053755 1.0098318 0.11893249
0.48537183 1.0250795 0.12378776
0.48783314 1.0231712 0.12035629
-0.37049219 1.0411712 0.12423682
-0.37049344 1.037919 0.11934033
-0.36766791 1.0469205 0.1212092
-0.14718907 1.0711554 0.12131333
-0.13904484 1.0684409 0.12080356
-0.36556017 1.0605824 0.12340811
-0.36214402 1.0641315 0.12085286
-0.3658312 1.0564981 0.11751762
-0.36310673 1.0605645 0.11605802
-0.16760448 1.0777416 0.11624438
-0.15879115 1.0742562 0.11788687
-0.15044133 1.0723457 0.11766204
-0.19738917 1.0943929 0.12109375
-0.18841495 1.0932002 0.12016797
-0.17887618 1.0905112 0.12118959
-0.17253491 1.0861628 0.12004003
-0.36772424 1.0839591 0.12466499
-0.210243 1.1018629 0.12384197
-0.20844266 1.0992473 0.11731508
-0.20048529 1.0962099 0.11654583
-0.23551045 1.1091067 0.11988056
-0.22771345 1.1082034 0.12228182
-0.22079842 1.1072637 0.12199157
0.43325454 1.4627471 0.12419492
0.32319266 1.4575856 0.12139672
0.33085626 1.4542564 0.12058485
0.34143999 1.4518144 0.11984339
0.35265088 1.4523424 0.12022924
0.36173677 1.4530737 0.12024018
0.37188038 1.4562037 0.1191341
0.38166174 1.457823 0.11837196
0.39071622 1.4585265 0.11913309
0.3978712 1.4599334 0.12111545
0.42334947 1.4577227 0.11645719
0.43401927 1.4599334 0.1195966
0.43803573 1.4599334 0.11942786
0.47187525 1.4782373 0.12483099
0.49174258 1.4760426 0.12459436
0.50078166 1.4768687 0.12451532
0.50971812 1.4787694 0.12410435
0.51786786 1.4794788 0.12491325
0.3141242 1.4697808 0.12459925
0.31889617 1.4661591 0.12309718
0.40372252 1.4682324 0.11908418
0.41181293 1.469855 0.11908969
0.41948038 1.4680569 0.12031627
0.43083781 1.4672894 0.12022796
0.4431532 1.4678075 0.12055123
0.4512912 1.4711101 0.11739776
0.46200788 1.4739325 0.11825943
0.48887578 1.4740874 0.11738163
0.31515568 1.4656681 0.11592022
0.31945959 1.4628725 0.11630961
0.47368869 1.4818164 0.11912274
0.48184857 1.4821726 0.11935794
0.49129173 1.4814602 0.11780503
0.5013451 1.4817451 0.11784509
0.51167941 1.4821726 0.11810455
0.52134871 1.4834548 0.11977947
0.53185403 1.4837397 0.11980048
0.54117155 1.4851646 0.12172124
0.31085384 1.4800354 0.12307426
0.55335146 1.4928489 0.12223971
0.56256753 1.4931031 0.1222654
0.57136428 1.4934211 0.12241173
0.58112824 1.4938323 0.12090874
0.59167689 1.4942679 0.12007281
0.60161561 1.4944637 0.11931238
0.61151224 1.4960372 0.11925
0.62156886 1.4989643 0.11785805
0.62855232 1.5011196 0.12106237
0.30945319 1.4900999 0.12230623
0.31239456 1.4848412 0.11507896
0.63397205 1.5081089 0.12073696
0.64037973 1.5081089 0.12046772
0.65292817 1.5086697 0.12085113
0.66147202 1.5093653 0.12035012
0.67165452 1.5141726 0.11755419
0.67892355 1.5148624 0.11836836
0.30742511 1.505458 0.12443545
0.30988172 1.5011206 0.11729312
0.68646538 1.5228324 0.1195457
0.69061887 1.5228324 0.11937118
0.30375132 1.5141037 0.12146041
0.30647072 1.5133762 0.12016571
0.30077016 1.5217121 0.11677289
0.29921442 1.5508201 0.12213019
0.2961266 1.5643872 0.11949056
0.29834887 1.5573468 0.11864871
0.29469466 1.5724455 0.11928141
0.29289281 1.5801352 0.11594734
0.28975788 1.5930462 0.116694
0.28798318 1.611364 0.11980245
0.28544763 1.6227124 0.12497878
0.28523713 1.6196206 0.11997035
0.28367889 1.6285068 0.12111002
0.28081942 1.6357816 0.1177828
0.27884987 1.6552491 0.124672
0.27564013 1.6521015 0.11969867
0.27863559 1.6521015 0.11957288
0.27545926 1.6710234 0.1218138
0.27842915 1.670229 0.12039974
0.27349058 1.676257 0.11704323
0.27189404 1.6873487 0.12176415
0.2731466 1.6833417 0.11520872
0.26542091 1.7063736 0.1243107
0.26911879 1.701692 0.12418428
0.26341754 1.7115592 0.11755654
0.26651192 1.7115592 0.11742648
0.26193756 1.7248812 0.12398562
0.26225612 1.735721 0.11677673
0.25931776 1.7491605 0.1196439
0.2575711 1.7601027 0.12222156
0.25728783 1.7559409 0.11547902
0.25556785 1.7677231 0.11941931
0.25376248 1.7786974 0.12205133
0.25054881 1.7971127 0.12347189
0.25098547 1.7900808 0.11738017
0.24791262 1.8068562 0.12032786
0.24619013 1.8198177 0.12427512
0.2440009 1.8274451 0.12149206
0.24710397 1.824861 0.11716798
0.24203821 1.8378567 0.12131086
0.2399826 1.8474066 0.11973557
0.2380715 1.8595815 0.12241367
0.23391123 1.8804762 0.12217781
0.23715554 1.8787085 0.1191726
0.2330087 1.8924179 0.12443522
0.23292775 1.8879167 0.11713383
0.22621754 1.9014071 0.12214884
0.22955567 1.9005142 0.12055954
0.22406361 1.9127834 0.12354144
0.22918767 1.9127834 0.12332615
0.22381929 1.9091939 0.11772636
0.22723532 1.9091939 0.11758283
0.22077283 1.9205703 0.11915645
0.21953094 1.9330302 0.12036261
