# .PCD v0.7 - Point Cloud Data file format
VERSION 0.7
FIELDS x y z rgb
SIZE 4 4 4 4
TYPE F F F F
COUNT 1 1 1 1
WIDTH 217
HEIGHT 1
VIEWPOINT 0 0 0 1 0 0 0
POINTS 217
DATA ascii
0.12692001 -0.17480001 1.5960001 9.8580604e-39
0.13224001 -0.17632002 1.5960001 1.031689e-38
0.12312001 -0.16872001 1.5960001 1.0223955e-38
0.10716 -0.15504001 1.5960001 1.0501631e-38
0.11096001 -0.15352002 1.5960001 1.1144862e-38
0.10792001 -0.14744002 1.5960001 1.1523704e-38
0.11096001 -0.13376001 1.5960001 1.1053711e-38
0.12671334 -0.18167335 1.603 9.3992389e-39
0.13282001 -0.18167335 1.603 9.7658746e-39
0.11450001 -0.17251335 1.603 1.068602e-38
0.12518668 -0.1750578 1.603 9.8577017e-39
0.13282001 -0.17251335 1.603 1.0133232e-38
0.10737556 -0.16233556 1.603 1.0501978e-38
0.11373667 -0.16488001 1.6029999 1.0500563e-38
0.12488134 -0.16457467 1.6029999 9.490001e-39
0.13282001 -0.16182667 1.603 1.0133574e-38
0.11450001 -0.15419334 1.603 1.114736e-38
0.11144667 -0.14503334 1.603 1.0962998e-38
0.11865334 -0.18029144 1.618 1.0134982e-38
0.12173524 -0.1818324 1.618 9.8584009e-39
0.10940763 -0.17104572 1.618 1.049911e-38
0.11507143 -0.1733743 1.6110001 1.0225405e-38
0.12173524 -0.17720954 1.618 1.0133553e-38
0.13041429 -0.17030573 1.6110001 9.7662488e-39
0.10893429 -0.16723715 1.6110001 1.1052991e-38
0.11814 -0.16416858 1.6110001 9.6744034e-39
0.12120858 -0.1626343 1.6110001 8.7553226e-39
0.13041429 -0.16570286 1.6110001 9.7662361e-39
0.11814 -0.15496287 1.6110001 1.0504858e-38
0.12439863 -0.15510954 1.6125556 9.5825567e-39
0.1339999 -0.1555599 1.6172223 9.8587919e-39
0.14099716 -0.15640667 1.618 8.5626343e-39
0.11652941 -0.14505565 1.6130002 1.0501283e-38
0.12481713 -0.14484954 1.618 9.582184e-39
0.133378 -0.14604805 1.618 9.8584234e-39
0.11711444 -0.13468723 1.6150001 1.0501621e-38
0.12481716 -0.13591202 1.618 9.5821966e-39
0.13098095 -0.13560382 1.618 9.5829281e-39
0.11557144 -0.12481716 1.618 1.0870047e-38
0.11557144 -0.11711239 1.618 1.0686016e-38
0.12543429 -0.13240287 1.626 9.5821966e-39
0.13162857 -0.13162857 1.626 9.5825974e-39
0.11924001 -0.12543431 1.6260002 1.0594192e-38
0.12388572 -0.12620857 1.626 9.949533e-39
0.13162857 -0.12853144 1.626 9.7662558e-39
0.11846572 -0.11536858 1.626 1.0502344e-38
0.12233715 -0.11614287 1.6260002 1.022612e-38
0.11924001 -0.10994858 1.626 1.0594185e-38
0.13162857 -0.094462864 1.6260002 9.8588073e-39
0.13395143 -0.085945718 1.626 9.8580674e-39
0.12729639 -0.12542896 1.6340001 9.672579e-39
0.13227619 -0.12605144 1.6340001 9.6740489e-39
0.1269407 -0.11582506 1.6340001 9.5818477e-39
0.11982667 -0.10426477 1.6340001 1.0317604e-38
0.12605144 -0.10348667 1.6340001 9.4903611e-39
0.13227619 -0.10270858 1.6340001 9.3992529e-39
0.12916383 -0.094927624 1.6340002 9.4892653e-39
0.11982667 -0.085590482 1.6340002 1.0410496e-38
0.12916383 -0.085590482 1.6340002 8.9382803e-39
0.13227619 -0.084034294 1.6340001 9.3070811e-39
0.11982667 -0.079365723 1.6340001 1.0503054e-38
0.13534345 -0.12159029 1.641 9.673686e-39
0.12815431 -0.11096287 1.641 9.6743894e-39
0.13526709 -0.1142475 1.6432859 9.8580744e-39
0.12554954 -0.10523239 1.641 9.6736692e-39
0.13473716 -0.1081 1.645 9.8580674e-39
0.12346572 -0.095334284 1.6409999 1.013353e-38
0.1161724 -0.083873346 1.6410002 1.0594175e-38
0.12502858 -0.085957155 1.641 9.764783e-39
0.1081 -0.075196192 1.645 9.3084726e-39
0.11436288 -0.075196207 1.6450002 1.0870409e-38
0.12455191 -0.075196199 1.6450002 1.0042086e-38
0.13334487 -0.075471021 1.6472223 9.674381e-39
0.11464477 -0.065960005 1.649 1.0961881e-38
0.12302065 -0.066483498 1.649 1.0317221e-38
0.11464477 -0.058107622 1.649 1.0779298e-38
0.13729429 -0.074170485 1.6570001 1.0410131e-38
0.14045049 -0.074170478 1.6570001 9.9491504e-39
0.11677906 -0.061545718 1.6570001 1.0686016e-38
0.12519556 -0.063649848 1.6569999 1.013355e-38
0.13413811 -0.064701915 1.6569998 9.3999633e-39
0.14045051 -0.064701915 1.6570001 9.6758118e-39
0.11565185 -0.054331571 1.6569999 1.096297e-38
0.12466954 -0.055233337 1.6569998 1.0226096e-38
0.13453263 -0.055627856 1.6569998 9.6751195e-39
0.14045049 -0.058389526 1.6570001 9.9517092e-39
0.11610273 -0.04621565 1.6569999 1.0778582e-38
0.12309144 -0.04576477 1.6569999 1.050233e-38
0.1316143 -0.052328575 1.6650001 9.3059867e-39
0.11258572 -0.044400003 1.6650001 1.1146633e-38
0.12844287 -0.045985721 1.6650002 1.003811e-38
0.13478573 -0.04915715 1.6650002 1.0317609e-38
0.14112858 -0.049157146 1.6650001 1.0500931e-38
0.11575715 -0.035678573 1.6650001 1.0869345e-38
0.12436531 -0.036924493 1.6650002 1.077713e-38
0.14430001 -0.03647143 1.6650001 1.0314742e-38
0.11575715 -0.02537143 1.6650001 1.0962974e-38
0.13543335 -0.044613332 1.6730002 1.0041737e-38
0.14180668 -0.044613335 1.6730001 1.0225062e-38
0.11631334 -0.033460002 1.6730001 1.0686037e-38
0.12714802 -0.032185335 1.6730002 1.0130341e-38
0.13543335 -0.038558669 1.6730002 9.7658858e-39
0.14286891 -0.038771115 1.6730001 1.041196e-38
0.10994001 -0.025493335 1.6730001 1.0872201e-38
0.11631336 -0.023444764 1.6730002 1.0962607e-38
0.12428001 -0.023900002 1.6730002 1.0502694e-38
0.11737557 -0.014340001 1.6730002 1.1054451e-38
0.12348334 -0.015136668 1.6730001 1.0686005e-38
0.087633342 0.081260003 1.6730001 1.252811e-38
0.094006673 0.081260003 1.6730001 1.3907809e-38
0.14568667 -0.044826671 1.6810001 1.0042129e-38
0.13608098 -0.032705173 1.6810001 9.6743908e-39
0.14248477 -0.032019049 1.6810001 1.022721e-38
0.12967715 -0.024014287 1.6810001 9.5796617e-39
0.13528049 -0.024014289 1.6810001 9.3077509e-39
0.11260033 -0.014408573 1.6810001 1.0871119e-38
0.12839639 -0.013768191 1.6810001 9.9477449e-39
0.13608097 -0.016009524 1.6810001 9.8598933e-39
0.10566287 -0.0032019049 1.6810001 1.1056224e-38
0.11366762 -0.0048028571 1.681 1.0871821e-38
0.12327334 -0.0048028571 1.681 1.068709e-38
0.10566287 0.0048028575 1.6810001 1.1147703e-38
0.11366762 0.0048028566 1.681 1.087111e-38
0.1213522 0.0041624769 1.6810001 1.1054422e-38
0.11046572 0.011206667 1.6810001 1.1055164e-38
0.12007143 0.011206667 1.6810001 1.1054797e-38
0.097658113 0.043225717 1.6810001 1.1609777e-38
0.088052385 0.078446671 1.6810001 1.1151672e-38
0.095096581 0.077165917 1.6810001 1.1240649e-38
0.094456196 0.081648573 1.6810001 1.3542978e-38
0.13573653 -0.025215877 1.6900001 9.0326003e-39
0.14002858 -0.022533335 1.6900001 1.0135e-38
0.13439524 -0.013680953 1.6900001 9.5822176e-39
0.14002858 -0.014485715 1.6900001 1.0503449e-38
0.13359049 -0.0048285718 1.6900003 9.4875123e-39
0.14318809 -0.0052461904 1.694 1.031976e-38
0.12634763 0.0056333342 1.6900001 1.0961489e-38
0.13373102 0.0048302645 1.6917779 9.3945543e-39
0.14047049 0.0048488891 1.6953334 1.0687808e-38
0.10472573 0.014502646 1.6917779 1.1331753e-38
0.11467858 0.014888096 1.6900003 1.1054446e-38
0.12433571 0.014888096 1.6900003 1.0687108e-38
0.13365908 0.014493333 1.6908891 9.1201507e-39
0.14069144 0.011320001 1.6980001 1.077891e-38
0.10467239 0.024153866 1.6908891 1.1240282e-38
0.1142762 0.024142858 1.6900003 1.114772e-38
0.12406541 0.024171643 1.6917779 1.0962973e-38
0.13311811 0.023764629 1.6957145 9.3960229e-39
0.10461906 0.033800002 1.6900003 1.1332832e-38
0.1142762 0.033800006 1.6900003 1.1332465e-38
0.12411573 0.033555716 1.6980001 1.1514688e-38
0.13098858 0.030725716 1.6980001 9.9477589e-39
0.098180957 0.049895242 1.6900001 1.1609426e-38
0.10432641 0.044627707 1.6900004 1.1425745e-38
0.11421382 0.043185242 1.6950002 1.1240638e-38
0.12128572 0.040428575 1.6980001 1.1883115e-38
0.098180965 0.056333341 1.6900001 1.1701972e-38
0.1051143 0.055521913 1.6980001 1.1149527e-38
0.11239144 0.052557148 1.6980001 1.1241355e-38
0.095945857 0.066492796 1.6911432 1.206967e-38
0.1040509 0.066671297 1.6957144 1.1884931e-38
0.11158287 0.069537148 1.6980001 1.1608348e-38
0.088523813 0.074038103 1.6900001 1.2346262e-38
0.094157152 0.073233336 1.6900001 1.2068955e-38
0.10478922 0.075766988 1.6926668 1.1793099e-38
0.11158287 0.07600572 1.6980002 1.2712177e-38
0.10478922 0.08221525 1.6926668 1.4280596e-38
0.145687 0.0027079368 1.7060001 1.0319029e-38
0.14135429 0.014622858 1.7060001 1.031904e-38
0.13810477 0.025996193 1.7060001 9.492882e-39
0.1283562 0.037369527 1.7060001 1.1516095e-38
0.13485524 0.030870479 1.7060001 8.4801847e-39
0.11860763 0.047118098 1.7060001 1.1516157e-38
0.12445678 0.043218669 1.7060002 1.1606878e-38
0.11644127 0.05361715 1.7060001 1.1608705e-38
0.10885905 0.06336572 1.7060001 1.1884578e-38
0.11442968 0.065686807 1.7060002 1.1516878e-38
0.11665791 0.07571391 1.7060002 1.2896563e-38
0.14754447 0.0070777787 1.715 1.0685638e-38
0.14536667 0.013883334 1.715 1.0503057e-38
0.14210001 0.024500003 1.715 1.013644e-38
0.13603336 0.035233334 1.7150002 9.0293886e-39
0.1442778 0.034844447 1.715 1.0319396e-38
0.12794445 0.046277784 1.715 1.1514689e-38
0.13475001 0.041650001 1.715 8.8435736e-39
0.14210001 0.040833335 1.715 1.1330671e-38
0.11923334 0.055533335 1.715 1.1609064e-38
0.12446 0.052593339 1.715 1.1425382e-38
0.11841667 0.062883332 1.715 1.1516869e-38
0.12250001 0.066966668 1.715 1.1331756e-38
0.12250002 0.073500007 1.715 1.1794176e-38
0.11923334 0.08003334 1.715 1.6498634e-38
0.14604478 0.018050477 1.723 1.0410531e-38
0.14604478 0.024614288 1.723 1.0227545e-38
0.14823273 0.033366036 1.723 1.0134998e-38
0.13685544 0.046274859 1.7229999 8.8442953e-39
0.14473201 0.044962097 1.7229999 1.0687454e-38
0.1279943 0.055792384 1.723 1.1333535e-38
0.13401112 0.051963493 1.723 8.7510178e-39
0.12635334 0.063528314 1.7229999 1.1422867e-38
0.12635334 0.072201908 1.723 1.1239916e-38
0.15010668 0.016495239 1.7320001 1.059166e-38
0.13581082 0.056633659 1.7320001 7.8337026e-39
0.14284877 0.052454859 1.7320002 1.0135722e-38
0.13251176 0.064331435 1.7320001 9.7615614e-39
0.13031238 0.070929527 1.7320001 1.1604709e-38
0.14508334 0.057204291 1.7410001 1.0043535e-38
0.15254477 0.056375243 1.7410001 9.9520315e-39
0.13651651 0.063560322 1.7410001 7.6493604e-39
0.14591239 0.061349526 1.7410001 1.0043538e-38
0.1550319 0.062178575 1.7410001 1.1886366e-38
0.13430573 0.0712981 1.7410001 1.0221417e-38
0.13833334 0.068333335 1.7500001 5.3520157e-39
0.14452381 0.065952383 1.7500002 8.848956e-39
0.15333334 0.06666667 1.7500001 1.0043559e-38
0.13833334 0.071666673 1.7500001 8.8385093e-39
0.14166668 0.071666673 1.7500001 1.1148391e-38
