# .PCD v0.7 - Point Cloud Data file format
VERSION 0.7
FIELDS x y z rgb
SIZE 4 4 4 4
TYPE F F F F
COUNT 1 1 1 1
WIDTH 217
HEIGHT 1
VIEWPOINT 0 0 0 1 0 0 0
POINTS 217
DATA ascii
-0.52746671 0.20940953 0.92000002 1.1522949e-38
-0.53059715 0.21894857 0.92700005 9.2137616e-39
-0.52856439 0.21526299 0.9253751 1.0968365e-38
-0.52721834 0.22552729 0.926 8.1999852e-39
-0.53059715 0.23307431 0.92700005 8.1077882e-39
-0.52903843 0.23555207 0.92633343 8.0155898e-39
-0.52917016 0.24474418 0.92590916 9.1212171e-39
-0.52920407 0.25516745 0.92580014 1.0503416e-38
-0.53059715 0.26309144 0.92700005 1.0595988e-38
-0.52883148 0.26220858 0.92700005 1.0503784e-38
-0.52724707 0.23540311 0.93238103 7.9230536e-39
-0.52705318 0.24408209 0.93300003 8.0145234e-39
-0.53054291 0.25420004 0.93000007 1.0042435e-38
-0.52780205 0.25486985 0.93396151 8.8449819e-39
-0.53142858 0.26748574 0.93000007 1.0413032e-38
-0.52823931 0.26465449 0.93345004 9.950612e-39
-0.5323481 0.27467522 0.93250012 1.0597785e-38
-0.52954429 0.27501768 0.93546164 1.004531e-38
-0.53377497 0.28396827 0.93566674 1.0965856e-38
-0.53520554 0.29270098 0.93700016 1.1609773e-38
-0.5253588 0.24773182 0.94090915 7.4642349e-39
-0.52419209 0.25454295 0.94227993 7.7393742e-39
-0.51944578 0.25209719 0.94200009 8.2939885e-39
-0.52482247 0.26481158 0.94397217 7.9237571e-39
-0.51878577 0.26344287 0.94500017 7.6493464e-39
-0.53014785 0.27643839 0.94371438 1.0043522e-38
-0.52544284 0.27477804 0.94558817 8.6613095e-39
-0.53158212 0.28590065 0.94208711 1.0505235e-38
-0.52730918 0.28625986 0.94706249 9.8591408e-39
-0.53310984 0.29568875 0.94216675 1.1241354e-38
-0.52735198 0.29490891 0.94729412 1.0412315e-38
-0.54087055 0.30842671 0.9460001 1.1703786e-38
-0.53487444 0.30444035 0.94488454 1.1517219e-38
-0.52894539 0.30245718 0.94800007 1.0688201e-38
-0.54171437 0.31509718 0.94800007 1.0968022e-38
-0.53810287 0.31449527 0.94800007 1.17027e-38
-0.54171437 0.32322288 0.94800001 1.1150252e-38
-0.52105951 0.26823384 0.95150006 8.0159667e-39
-0.52141219 0.27556029 0.9535715 7.6486121e-39
-0.51933813 0.27194762 0.95500004 8.202132e-39
-0.52284849 0.28475791 0.95232254 8.3843709e-39
-0.518897 0.28722271 0.95620006 7.2776744e-39
-0.5230763 0.2952854 0.95229173 9.2144973e-39
-0.5185113 0.29427233 0.95500004 8.015594e-39
-0.53165245 0.30884862 0.95100009 1.1056242e-38
-0.52484643 0.30505386 0.95393544 1.0135724e-38
-0.51919311 0.30176169 0.95725012 8.6609578e-39
-0.54014289 0.31485718 0.95000005 1.1703422e-38
-0.53400987 0.31527293 0.95266664 1.1241717e-38
-0.52713019 0.31370473 0.95660019 1.0412682e-38
-0.54102099 0.32642597 0.95074999 1.1244235e-38
-0.53401375 0.32427225 0.95318413 1.1519019e-38
-0.52826864 0.32115811 0.95800006 1.0689277e-38
-0.54301977 0.33517909 0.95321041 1.0872945e-38
-0.53653234 0.33412689 0.95500004 1.1611578e-38
-0.54453284 0.34320593 0.95740014 1.0504869e-38
-0.53934765 0.34107146 0.95500004 1.1149871e-38
-0.52094668 0.2773048 0.96175003 7.834088e-39
-0.52075952 0.28363502 0.96225005 7.0039826e-39
-0.51839787 0.28720862 0.96425003 6.081669e-39
-0.51889986 0.29575396 0.96494126 6.4482725e-39
-0.5210405 0.30813813 0.96149999 9.0311626e-39
-0.51817757 0.30435619 0.96576184 7.5535242e-39
-0.52353483 0.315588 0.96169579 9.6761887e-39
-0.51892883 0.31405178 0.96631247 8.3850982e-39
-0.53138959 0.32799619 0.96200001 1.1148436e-38
-0.52454495 0.32484573 0.96391404 1.0136082e-38
-0.51956862 0.32207716 0.96900004 8.7545981e-39
-0.53327829 0.33549148 0.96394455 1.1150603e-38
-0.52533376 0.3346884 0.96570945 1.059563e-38
-0.55120289 0.34851432 0.96300006 9.4910884e-39
-0.54350567 0.34752071 0.96161562 1.0872931e-38
-0.53537124 0.34461948 0.96412492 1.1426834e-38
-0.52718103 0.3431372 0.96560001 1.1241711e-38
-0.55262721 0.35590145 0.96749997 9.3981739e-39
-0.54489356 0.35578385 0.96566653 1.0504166e-38
-0.53693593 0.35392925 0.96833324 1.1149527e-38
-0.54544508 0.36194074 0.96825004 1.0136093e-38
-0.52117717 0.29715431 0.97200006 6.1698961e-39
-0.5189324 0.29746002 0.97300005 5.986916e-39
-0.51853907 0.30796954 0.97400004 6.6308673e-39
-0.52013624 0.31264001 0.97700006 7.0918454e-39
-0.51688963 0.31667536 0.97510016 6.7263069e-39
-0.52098489 0.32654226 0.97337502 8.9382691e-39
-0.51763487 0.32467735 0.97533351 7.8312097e-39
-0.52133864 0.33504748 0.9731667 9.6751097e-39
-0.51770484 0.33407143 0.97592866 8.5698327e-39
-0.52330285 0.34547001 0.9738127 1.0411603e-38
-0.51827526 0.34148479 0.97700006 9.2155665e-39
-0.53259611 0.35580105 0.9723078 1.1058414e-38
-0.52601182 0.35427082 0.97499996 1.0689274e-38
-0.55490935 0.36578074 0.97346163 8.6616977e-39
-0.54451746 0.36603722 0.97327787 1.0596354e-38
-0.53587753 0.3632659 0.97400004 1.1426824e-38
-0.52795225 0.36083871 0.97700006 1.1150268e-38
-0.55456388 0.37219048 0.97700012 8.7535219e-39
-0.54590327 0.37254834 0.97700018 1.0136093e-38
-0.51745987 0.31633154 0.98074996 6.1720541e-39
-0.51455176 0.32492658 0.98174065 6.449699e-39
-0.51416934 0.33517087 0.9823333 7.3695057e-39
-0.51675612 0.34586841 0.98360717 8.7538541e-39
-0.5224787 0.35741654 0.98172718 1.0228656e-38
-0.51625168 0.35416988 0.98417872 9.3988801e-39
-0.53268421 0.36784044 0.98222226 1.1977837e-38
-0.52486992 0.36540583 0.98414296 1.0781113e-38
-0.51687813 0.36467198 0.98582345 9.6761985e-39
-0.56004292 0.37992859 0.98500007 8.3868722e-39
-0.55572224 0.37796479 0.98233336 8.8460721e-39
-0.54366273 0.37655762 0.98134989 1.078038e-38
-0.53475624 0.37569436 0.98406917 1.1703063e-38
-0.52511054 0.37486479 0.98648179 1.1241e-38
-0.51786417 0.37374264 0.98649997 1.0321195e-38
-0.56268954 0.3820267 0.98800004 8.2950213e-39
-0.5550729 0.385077 0.98616678 8.6624123e-39
-0.54478621 0.38509655 0.98441666 1.0136807e-38
-0.53542781 0.3848331 0.98669583 1.133393e-38
-0.52787429 0.38320291 0.98799998 1.1886011e-38
-0.55359364 0.39143622 0.98800004 8.6627654e-39
-0.54410571 0.39167145 0.98799998 1.0320469e-38
-0.5372839 0.39049527 0.98800009 1.0964422e-38
-0.55610287 0.41872385 0.98800004 1.2812269e-38
-0.51237655 0.33664891 0.9920001 6.3564678e-39
-0.51548958 0.34510574 0.99550009 7.1851256e-39
-0.51427609 0.3557435 0.99446166 8.292157e-39
-0.51505947 0.36533904 0.99500012 8.7545953e-39
-0.51636899 0.37534133 0.99383336 9.3999718e-39
-0.56339371 0.38829717 0.9920001 8.2003468e-39
-0.53230858 0.38979337 0.99100006 1.1334998e-38
-0.52555907 0.38600904 0.99328572 1.1334272e-38
-0.51757586 0.38390347 0.99492323 1.0044607e-38
-0.56496668 0.39405242 0.99700004 8.6599026e-39
-0.55422312 0.39717299 0.9934001 8.5716418e-39
-0.54396158 0.39678663 0.99275011 1.0503077e-38
-0.53453034 0.39618605 0.995 1.1242091e-38
-0.52492702 0.39203534 0.99670011 1.1241718e-38
-0.51875657 0.39088735 0.9970001 1.068819e-38
-0.55262291 0.40259811 0.99700004 9.1230149e-39
-0.54502672 0.40164861 0.9970001 1.0412322e-38
-0.53458196 0.40164861 0.99700004 1.1332495e-38
-0.55838835 0.41578418 0.99600005 1.0874009e-38
-0.56591618 0.42253813 0.99700004 1.3733511e-38
-0.55832005 0.4215886 0.99700004 1.170486e-38
-0.5142318 0.34802413 1.0030001 6.9099891e-39
-0.51364642 0.35486743 1.0043501 7.4634894e-39
-0.51399505 0.36482787 1.0054444 8.1088616e-39
-0.51512951 0.37502316 1.0054739 8.9375377e-39
-0.50750482 0.37671113 1.0073333 5.9030286e-39
-0.51508534 0.38510057 1.0052223 9.1226674e-39
-0.50976002 0.38304001 1.008 8.8450015e-39
-0.57027715 0.39642385 1.003 8.7499262e-39
-0.56857145 0.39333335 1 8.8442714e-39
-0.53047621 0.39714289 1 1.2070055e-38
-0.52425367 0.3968026 1.0008572 1.1148445e-38
-0.51584458 0.39462176 1.0053914 9.7669606e-39
-0.55487061 0.40643182 1.0002728 9.0304578e-39
-0.54485327 0.40673476 1.0001667 1.050415e-38
-0.53437883 0.40648866 1.0021667 1.1516894e-38
-0.52499163 0.40526104 1.0058001 1.0965493e-38
-0.51768005 0.40272003 1.008 1.0043535e-38
-0.56277943 0.41628355 1.001 1.1336413e-38
-0.55482733 0.41556692 1.0027086 9.0301032e-39
-0.54519635 0.41448554 1.0025501 1.0227569e-38
-0.53553796 0.41546997 1.0062903 1.1333919e-38
-0.52691638 0.41558388 1.0077648 1.151795e-38
-0.57006669 0.42252004 1.006 1.3179969e-38
-0.56380951 0.42095244 1 1.2627515e-38
-0.55356526 0.4229705 1.0065 8.9390006e-39
-0.54432821 0.42304912 1.0066876 9.951712e-39
-0.53521371 0.42377728 1.0077896 1.1056613e-38
-0.52640009 0.42208004 1.0080001 1.0966577e-38
-0.51362127 0.36572984 1.0140002 7.7418671e-39
-0.51349521 0.37358946 1.0131 8.1103105e-39
-0.51288509 0.38460821 1.0133077 8.3858044e-39
-0.50778574 0.38622767 1.013 9.1262547e-39
-0.5123198 0.3952893 1.01275 8.9389894e-39
-0.52090573 0.40921432 1.011 9.8598709e-39
-0.51562256 0.40605146 1.0140002 9.4003333e-39
-0.52172625 0.41545418 1.0127727 1.0504879e-38
-0.51796657 0.41534367 1.0165715 1.0504149e-38
-0.54709548 0.42808628 1.011 9.6751279e-39
-0.53149718 0.4265458 1.0110002 1.1149173e-38
-0.52345449 0.42521384 1.0136539 1.0873304e-38
-0.51779836 0.42404062 1.0170001 1.0320101e-38
-0.52399719 0.4310143 1.0170001 1.0598142e-38
-0.51388574 0.38954288 1.0200001 8.7549653e-39
-0.51232445 0.39623463 1.0228236 8.571646e-39
-0.51227111 0.4049775 1.0218751 9.307409e-39
-0.51478672 0.41500738 1.0214288 1.0134664e-38
-0.5153957 0.42510191 1.0214119 1.041233e-38
-0.52165717 0.43131432 1.0200001 1.0504868e-38
-0.5169847 0.43231666 1.023 1.0688188e-38
-0.51083672 0.39786431 1.0315001 1.050631e-38
-0.51173174 0.40542316 1.0335624 1.0414834e-38
-0.50911719 0.40847716 1.036 1.1522268e-38
-0.5119949 0.41526327 1.0308 9.6751321e-39
-0.50820351 0.41472784 1.0347145 1.060069e-38
-0.51376879 0.42514044 1.03405 9.8598653e-39
-0.50762582 0.42153716 1.039 1.1704511e-38
-0.51506436 0.43473271 1.0354 1.0410881e-38
-0.51356292 0.44033813 1.039 9.9527798e-39
-0.51107621 0.40687621 1.0420001 1.1151323e-38
-0.51187015 0.42811319 1.0420001 9.766246e-39
-0.50848454 0.42661986 1.0432001 1.1427918e-38
-0.5125227 0.43561506 1.0436875 9.4910926e-39
-0.50838798 0.43433905 1.0460001 1.068929e-38
-0.51210064 0.44186279 1.0461252 9.5836554e-39
-0.51142383 0.42903337 1.0550001 1.262718e-38
-0.51114333 0.43467718 1.0565001 1.2628254e-38
-0.50978446 0.43758067 1.0530001 1.1520481e-38
-0.51128072 0.44693312 1.0557501 9.8598807e-39
-0.50969195 0.44246858 1.0535001 9.8631261e-39
-0.51234877 0.43669516 1.0652857 1.2534637e-38
-0.51089311 0.44436741 1.0628573 1.2350954e-38
-0.50884253 0.44507343 1.0667692 1.3270752e-38
-0.51162291 0.45161146 1.0680001 1.2999193e-38
-0.50891054 0.45195052 1.0680001 1.391648e-38
-0.50800359 0.45332074 1.0732499 1.3640616e-38
