# .PCD v0.7 - Point Cloud Data file format
VERSION 0.7
FIELDS x y z rgb
SIZE 4 4 4 4
TYPE F F F F
COUNT 1 1 1 1
WIDTH 253
HEIGHT 1
VIEWPOINT 0 0 0 1 0 0 0
POINTS 253
DATA ascii
0.51844001 -0.39025432 0.99700004 4.7823024e-39
0.51587522 -0.38435391 0.99647051 7.1811642e-39
0.52178276 -0.38472268 0.99633342 2.7651458e-39
0.50821429 -0.3744005 0.99650002 1.3733161e-38
0.51496381 -0.37506777 0.9953928 4.4192694e-39
0.52203822 -0.37537259 0.9964546 1.8424651e-39
0.50700724 -0.36551291 0.99594116 1.1517592e-38
0.51440352 -0.36442608 0.9938888 2.7622718e-39
0.52168834 -0.36501813 0.99550003 1.5665942e-39
0.50796139 -0.35574138 0.99607706 5.062122e-39
0.51484179 -0.35484716 0.99528569 2.1194247e-39
0.52210701 -0.35503167 0.99675006 1.1989131e-39
0.50794631 -0.3446351 0.99566674 2.3048809e-39
0.51502699 -0.34519267 0.99574989 1.6580724e-39
0.52223819 -0.34467718 0.99700004 1.1063462e-39
0.50667208 -0.33511564 0.99600005 2.3030817e-39
0.51522243 -0.33568242 0.99667853 1.1063377e-39
0.52223819 -0.33518192 0.99700004 1.107065e-39
0.50693679 -0.3257291 0.99616677 1.7502722e-39
0.51479685 -0.32490203 0.99503839 1.2896542e-39
0.52223814 -0.32663622 0.9970001 1.3818484e-39
0.50829262 -0.31585136 0.99678576 1.3829232e-39
0.51546097 -0.31517926 0.99606246 1.0148694e-39
0.52211314 -0.31429031 0.99640018 9.2303109e-40
0.50951451 -0.30555677 0.99700004 1.0134247e-39
0.51559144 -0.30479714 0.99699986 9.2196331e-40
0.52160513 -0.3054302 0.9970001 1.1070622e-39
0.50989431 -0.29720098 0.9970001 1.1063392e-39
0.51432544 -0.29644135 0.99699998 9.2232764e-40
0.52128863 -0.29910001 0.99700004 7.3867206e-40
0.51936001 -0.41184002 1.008 1.4010829e-38
0.52491015 -0.41167662 1.0076001 1.1612317e-38
0.51936007 -0.40512002 1.008 1.3824657e-38
0.52395082 -0.40518099 1.0057601 9.6747636e-39
0.51578808 -0.39370203 1.0052354 1.2996303e-38
0.52306807 -0.39601374 1.0026002 5.7074957e-39
0.50562042 -0.38331068 1.0048183 1.4193433e-38
0.51322371 -0.38711527 1.0031821 1.4194502e-38
0.50384349 -0.37515923 1.0049 1.4009033e-38
0.49916765 -0.3679086 1.006 1.3550601e-38
0.5040558 -0.3649964 1.0048848 1.400976e-38
0.50523543 -0.35518438 1.0054195 1.3087433e-38
0.50457352 -0.3452765 1.0050271 1.0965134e-38
0.49916765 -0.33341718 1.006 1.3086361e-38
0.50257486 -0.33461848 1.0046366 9.6754782e-39
0.49916765 -0.32383621 1.006 1.2349883e-38
0.50279254 -0.32476872 1.0032085 5.8025387e-39
0.52476192 -0.32285717 1 1.2907416e-39
0.49916765 -0.31521335 1.006 9.1241318e-39
0.5041945 -0.31495005 1.0026131 2.3927662e-39
0.49932584 -0.30457416 1.0048749 4.0479645e-39
0.50541008 -0.30487859 1.0018531 1.29002e-39
0.51142859 -0.30571431 1 1.0137848e-39
0.52476192 -0.30380955 1 9.2375697e-40
0.49930826 -0.2957553 1.005 2.7601012e-39
0.50500304 -0.29442102 1.0023824 1.4740455e-39
0.51559424 -0.29250547 1.0004287 9.230353e-40
0.52369452 -0.29475549 1.0016001 1.106356e-39
0.50561333 -0.28569502 1.0056775 1.0145065e-39
0.5148105 -0.28499636 1.0045519 1.0145009e-39
0.52376866 -0.28478929 1.0045928 1.1059804e-39
0.5075115 -0.27686799 1.0076668 8.3082706e-40
0.5154385 -0.27547568 1.0078399 1.013789e-39
0.52468425 -0.27652514 1.0077779 9.2266676e-40
0.50976002 -0.26784003 1.008 8.2939353e-40
0.51593739 -0.26475134 1.0079999 9.2159897e-40
0.52483565 -0.26513776 1.0079999 1.0141421e-39
0.51782405 -0.25708804 1.008 1.0134219e-39
0.52224004 -0.25824001 1.008 8.2867466e-40
0.51646668 -0.41195238 1.013 1.3918635e-38
0.52052003 -0.41042858 1.0140001 1.391971e-38
0.51505291 -0.4043225 1.0135714 1.2996329e-38
0.50921148 -0.39355624 1.0120001 1.4379999e-38
0.51346546 -0.39647233 1.0118999 1.3088886e-38
0.50838858 -0.38995716 1.011 1.4285995e-38
0.4997229 -0.37455145 1.011 1.382679e-38
0.5016486 -0.37840289 1.011 1.4101272e-38
0.50246388 -0.35564002 1.0120001 1.3643151e-38
0.50140607 -0.34612328 1.0158751 1.2815169e-38
0.49881431 -0.33512577 1.0170002 1.2167637e-38
0.50109279 -0.33520603 1.0159092 1.2166568e-38
0.49853718 -0.32522669 1.0160002 1.3086359e-38
0.50107598 -0.32433718 1.0148573 1.3730636e-38
0.49886453 -0.31384656 1.0148573 1.2994885e-38
0.50111485 -0.31674805 1.0146 1.3179261e-38
0.49763867 -0.30491796 1.0131818 1.1701981e-38
0.49848685 -0.29747257 1.0128001 7.4617308e-39
0.50102401 -0.29257032 1.0152 2.6682699e-39
0.50268787 -0.28401071 1.0137501 1.4751259e-39
0.50580496 -0.27462727 1.0137272 1.3818456e-39
0.51441765 -0.2706967 1.0115001 8.2939633e-40
0.52723312 -0.27331391 1.0110002 8.3190185e-40
0.53053433 -0.27248859 1.011 9.2445622e-40
0.50739789 -0.26516619 1.0139999 1.0134247e-39
0.51292783 -0.26258492 1.0110002 8.2939633e-40
0.52860862 -0.26093429 1.011 1.3804163e-39
0.53053433 -0.26093429 1.011 9.2159196e-40
0.5084722 -0.25701573 1.0155001 1.0141393e-39
0.51417619 -0.25449842 1.0132728 8.3082846e-40
0.52520072 -0.25403023 1.01325 8.301222e-40
0.53164977 -0.25432 1.0146002 7.3865525e-40
0.51673287 -0.24843858 1.0170001 7.4007476e-40
0.52356672 -0.2480619 1.0170001 8.31197e-40
0.53368288 -0.24892287 1.0170001 6.4644701e-40
0.50296628 -0.35411954 1.0215 1.3275791e-38
0.4983429 -0.34097144 1.0200001 7.931006e-39
0.50166911 -0.34569007 1.0215 1.2447462e-38
0.49692991 -0.33425975 1.0200002 1.2997396e-38
0.49567056 -0.32413676 1.0212276 1.3086739e-38
0.4978185 -0.31684971 1.0241539 1.2719742e-38
0.50028574 -0.31668574 1.0200001 1.2719743e-38
0.49534729 -0.30383343 1.0227693 1.2720086e-38
0.49755898 -0.29546016 1.0235001 1.2811928e-38
0.50067437 -0.29278859 1.0200001 9.0228992e-39
0.49779993 -0.28484285 1.0240588 1.1705216e-38
0.50140435 -0.28471348 1.0203001 3.9554214e-39
0.49919859 -0.27690077 1.0237499 8.0101794e-39
0.50244486 -0.27479947 1.0209376 1.4733378e-39
0.50405633 -0.26500446 1.0230001 1.564809e-39
0.50702542 -0.2552039 1.023 1.0145065e-39
0.51097143 -0.25160003 1.0200001 9.2266255e-40
0.50785965 -0.24519373 1.0230001 8.3118719e-40
0.51453328 -0.24468873 1.0209004 8.3082566e-40
0.52525181 -0.24367097 1.0206318 7.3828391e-40
0.53302962 -0.24517089 1.0202003 7.3863843e-40
0.5092448 -0.23851526 1.0250001 6.464386e-40
0.51550609 -0.23571174 1.0241431 9.2122902e-40
0.52483314 -0.23621576 1.0240802 1.1049014e-39
0.53419137 -0.23712495 1.0241667 7.382741e-40
0.5032286 -0.35412383 1.0300001 1.3276157e-38
0.49855766 -0.31730765 1.0315001 1.2994525e-38
0.50126672 -0.31684765 1.0300001 1.2811581e-38
0.4982667 -0.30093336 1.036 1.2903767e-38
0.49663064 -0.29426187 1.033375 1.2903053e-38
0.49628627 -0.28558904 1.0338001 1.27201e-38
0.49869135 -0.27695265 1.0335455 1.2626808e-38
0.50129455 -0.27312079 1.0336667 1.0776043e-38
0.49970955 -0.26222384 1.039 1.2259126e-38
0.50215316 -0.26485702 1.03345 5.7096256e-39
0.49898812 -0.25690192 1.0375 1.152151e-38
0.50344342 -0.25477305 1.0326002 3.3136225e-39
0.50556183 -0.24479695 1.0340717 1.6573493e-39
0.50787634 -0.23564103 1.0383571 1.473321e-39
0.51289469 -0.23398028 1.0338402 1.1052587e-39
0.52537012 -0.23108439 1.0300002 1.01271e-39
0.53478259 -0.23199528 1.03 8.2904601e-40
0.54050481 -0.23248574 1.0300001 8.2939353e-40
0.5163691 -0.22619298 1.0349998 8.2975506e-40
0.52497703 -0.22462639 1.0342003 6.4572674e-40
0.53460675 -0.22417217 1.0339003 7.3755803e-40
0.54175031 -0.22457504 1.0342501 6.4608127e-40
0.53632194 -0.21868478 1.039 6.4573515e-40
0.54324859 -0.21868478 1.039 5.5460871e-40
0.49804959 -0.27248001 1.0480001 1.2444225e-38
0.5009433 -0.27415615 1.0460911 1.2811209e-38
0.49842352 -0.26354879 1.0460001 1.2719377e-38
0.50067037 -0.26737347 1.044625 1.253535e-38
0.498891 -0.2593843 1.0435001 1.2628247e-38
0.50077933 -0.25364766 1.0456924 1.2347323e-38
0.50359732 -0.24525923 1.0463126 7.3698266e-39
0.50664425 -0.23536231 1.0454617 1.1056497e-39
0.50866932 -0.22857372 1.0444001 1.5651621e-39
0.51311958 -0.22421676 1.04488 1.2885808e-39
0.52199244 -0.22130096 1.0420001 8.301166e-40
0.51722044 -0.21827905 1.0456002 7.382769e-40
0.52487856 -0.215224 1.0456564 7.3791817e-40
0.53471953 -0.21438034 1.0445715 7.3792517e-40
0.54410195 -0.21425213 1.0448421 5.5389124e-40
0.5511567 -0.2152786 1.0465001 8.301166e-40
0.53647625 -0.20860192 1.0480001 5.5425138e-40
0.54196572 -0.20860192 1.0480001 5.5425138e-40
0.49767825 -0.27496859 1.0533638 1.2535712e-38
0.50195432 -0.27752763 1.052 1.2719372e-38
0.49680817 -0.26507652 1.0535883 1.2626833e-38
0.50137621 -0.26023334 1.0550001 1.2626466e-38
0.49849272 -0.25713271 1.0560001 1.2902329e-38
0.50120717 -0.25468543 1.0570003 1.2994527e-38
0.50233644 -0.24463452 1.0552145 1.2903404e-38
0.50650209 -0.23499991 1.0548003 8.7484605e-39
0.50905806 -0.22596501 1.055231 3.6824078e-39
0.51178598 -0.22070169 1.0557501 2.8522968e-39
0.5165118 -0.21575807 1.0542942 1.4736783e-39
0.52165931 -0.21143983 1.0562 1.1967327e-39
0.53000766 -0.21140192 1.052 6.464386e-40
0.55204958 -0.21240383 1.052 5.5388704e-40
0.52637452 -0.20686816 1.055353 8.3010819e-40
0.53485584 -0.20530608 1.0557202 5.546017e-40
0.54527372 -0.20616189 1.0548335 6.453624e-40
0.55389059 -0.20589317 1.0564121 5.5352831e-40
0.50046861 -0.25377068 1.0616001 1.2811217e-38
0.50190341 -0.24555606 1.0625002 1.2718297e-38
0.5045079 -0.23467731 1.0621251 1.2534636e-38
0.50653267 -0.22499941 1.0633528 1.1517948e-38
0.5102905 -0.2212943 1.0610001 7.2804756e-39
0.50907034 -0.2178313 1.0655 1.3086665e-38
0.51486504 -0.21464489 1.0646522 6.9041905e-39
0.51980007 -0.20913716 1.066 4.4127912e-39
0.52490342 -0.20502786 1.0639999 1.9314265e-39
0.53252101 -0.20108478 1.0610001 5.546017e-40
0.54464668 -0.20184262 1.061 6.4572113e-40
0.55407786 -0.2014216 1.0610001 5.5424297e-40
0.52944577 -0.19847621 1.066 3.953971e-39
0.53514314 -0.19721825 1.0664706 1.1967383e-39
0.54365867 -0.19756274 1.0667334 8.2904741e-40
0.55431813 -0.19898479 1.066 6.4464914e-40
0.56109971 -0.19877081 1.0666668 7.3648043e-40
0.50324571 -0.25162286 1.074 1.2535349e-38
0.50386453 -0.24222288 1.0731429 1.2810135e-38
0.50418866 -0.23451819 1.0735625 1.2442435e-38
0.50573385 -0.22477227 1.0755715 1.1243901e-38
0.50796729 -0.21657075 1.0743335 1.2625378e-38
0.51288742 -0.21163979 1.0722501 1.2809027e-38
0.50521147 -0.20596954 1.076 1.3270404e-38
0.51503724 -0.20598623 1.0749998 1.2720448e-38
0.52348441 -0.20286223 1.0729413 1.1329932e-38
0.51230669 -0.19814669 1.0780001 1.2994892e-38
0.52718019 -0.19724962 1.0748463 1.1425053e-38
0.53383172 -0.19266552 1.0734001 1.0132126e-38
0.54608995 -0.19302705 1.0723847 9.208801e-40
0.55588788 -0.19436564 1.073263 9.2016124e-40
0.56392634 -0.19380115 1.0746365 5.5317238e-40
0.53537506 -0.18893565 1.0762222 1.2904102e-38
0.54662675 -0.18905336 1.0780001 5.1539309e-39
0.55465668 -0.18916334 1.0780001 9.2123603e-40
0.50292122 -0.23328745 1.0859288 1.2626817e-38
0.50464284 -0.22492962 1.0855001 1.0599244e-38
0.5079993 -0.21392478 1.0825001 1.2993808e-38
0.5090543 -0.20764048 1.082 1.2811588e-38
0.51545501 -0.20293312 1.0830001 1.2903414e-38
0.5219686 -0.20075716 1.0810001 1.2903061e-38
0.51824391 -0.19782533 1.0842857 1.2994891e-38
0.52563345 -0.19550166 1.086143 1.2718296e-38
0.53151298 -0.19303261 1.0862001 1.1150988e-38
0.56623816 -0.19046192 1.0810001 4.6170402e-40
0.53600526 -0.18936144 1.0865 1.3272558e-38
0.54583544 -0.18592425 1.0837145 1.1054785e-38
0.55464548 -0.18388048 1.0834999 1.2885794e-39
0.56504482 -0.18526058 1.0854738 7.3791676e-40
0.5715524 -0.18609905 1.0868 5.5532617e-40
0.50186002 -0.22859049 1.0910001 9.3139208e-39
0.52575809 -0.19222383 1.0910001 1.2625734e-38
0.53303146 -0.19014573 1.0910001 1.1798853e-38
0.52840722 -0.18901572 1.0965 1.2903041e-38
0.5363822 -0.18679956 1.0966429 1.1706674e-38
0.5446226 -0.18439232 1.0950998 1.2810844e-38
0.55318296 -0.18090861 1.098 9.7604838e-39
0.56731999 -0.18183334 1.0910001 7.3755523e-40
0.57460052 -0.1819981 1.092 7.3829652e-40
0.54795432 -0.17881715 1.098 1.308781e-38
0.56669432 -0.1791846 1.0926001 6.4464354e-40
0.57147622 -0.17975526 1.0910001 7.3649445e-40
0.54859573 -0.18181476 1.1035 1.2627937e-38
0.55014002 -0.18338001 1.113 1.2628647e-38
