# .PCD v0.7 - Point Cloud Data file format
VERSION 0.7
FIELDS x y z rgb
SIZE 4 4 4 4
TYPE F F F F
COUNT 1 1 1 1
WIDTH 1045
HEIGHT 1
VIEWPOINT 0 0 0 1 0 0 0
POINTS 1045
DATA ascii
-0.26531145 0.49560529 1.3937501 1.5301207e-38
-0.25448552 0.4955484 1.3933333 1.5761114e-38
-0.24445166 0.49484253 1.3937895 1.5024627e-38
-0.23471208 0.4955534 1.395 1.5300126e-38
-0.22422452 0.49567762 1.3942857 1.4841317e-38
-0.21492286 0.49484095 1.3929999 1.4931722e-38
-0.20530094 0.49450794 1.393 1.4747694e-38
-0.19602811 0.49404451 1.3907501 1.4747684e-38
-0.18798098 0.49378103 1.3900002 1.465585e-38
-0.26601905 0.50391507 1.3924001 1.5854037e-38
-0.25496575 0.50225335 1.3900002 1.5946952e-38
-0.24490479 0.50172389 1.3900001 1.5302658e-38
-0.23477793 0.5026843 1.3912003 1.5394127e-38
-0.22703335 0.50238574 1.3900001 1.4931735e-38
-0.21472192 0.50225335 1.3900002 1.5391628e-38
-0.20519051 0.50172389 1.3900001 1.4932808e-38
-0.29241717 0.46866861 1.4020001 1.5296166e-38
-0.28600097 0.46588606 1.4025558 1.3182505e-38
-0.29159859 0.47217953 1.4045 1.6035191e-38
-0.28475001 0.47235 1.4070001 1.4102317e-38
-0.26666003 0.48910007 1.4070001 1.38243e-38
-0.25326002 0.48820671 1.4070001 1.401192e-38
-0.24568382 0.48736194 1.4020001 1.4472173e-38
-0.22110002 0.48910004 1.4070001 1.3919357e-38
-0.21336699 0.48616752 1.4054998 1.3181422e-38
-0.20490083 0.48500347 1.4038751 1.3458044e-38
-0.19495726 0.48587453 1.4047276 1.4010481e-38
-0.27105334 0.4900324 1.4020001 1.4010846e-38
-0.26506394 0.49235684 1.4038751 1.4469294e-38
-0.25592786 0.49113694 1.40325 1.4657317e-38
-0.24701905 0.4900324 1.4020002 1.4656925e-38
-0.23495692 0.49201313 1.40575 1.4564712e-38
-0.22560783 0.49161702 1.4050001 1.4472165e-38
-0.21764383 0.4900324 1.4020001 1.4103036e-38
-0.2096324 0.4900324 1.4020001 1.345979e-38
-0.28515145 0.46894574 1.419 1.4194507e-38
-0.19685811 0.46714386 1.419 1.2811587e-38
-0.29202002 0.47772861 1.4130001 1.4007641e-38
-0.2841686 0.47519574 1.4175001 1.4194139e-38
-0.27974573 0.47705433 1.419 1.3826794e-38
-0.26488 0.47975716 1.419 1.382537e-38
-0.25596061 0.47867605 1.419 1.34573e-38
-0.20504859 0.47730002 1.4189999 1.2996333e-38
-0.19595715 0.47705427 1.4189999 1.3087812e-38
-0.27171832 0.48595721 1.4166001 1.4194849e-38
-0.2648972 0.48509511 1.4160001 1.4469661e-38
-0.25501966 0.48550266 1.4158002 1.4010118e-38
-0.24407969 0.48650387 1.4176667 1.3365104e-38
-0.23473573 0.48700243 1.4165 1.2995599e-38
-0.22450736 0.48813516 1.4164287 1.3364744e-38
-0.21512696 0.48360124 1.4155716 1.2719722e-38
-0.20477748 0.48380482 1.4176667 1.2721181e-38
-0.1951286 0.48176575 1.4130001 1.3271834e-38
-0.18974572 0.48176575 1.4130001 1.3641334e-38
-0.27376002 0.49087718 1.4160001 1.3644211e-38
-0.26241431 0.49118575 1.4130001 1.3640644e-38
-0.2548686 0.49087718 1.4160001 1.3736059e-38
-0.24409716 0.49087718 1.4160001 1.4195947e-38
-0.23442344 0.49172407 1.4130001 1.4100866e-38
-0.22608002 0.49118575 1.4130001 1.3918638e-38
-0.28907144 0.4682143 1.4250001 1.3085968e-38
-0.28092858 0.47635716 1.4250001 1.4010451e-38
-0.26464289 0.47907147 1.4250001 1.3642418e-38
-0.25242859 0.47907147 1.4250001 1.30896e-38
-0.24428572 0.47907147 1.4250001 1.3089219e-38
-0.23478574 0.47907147 1.4250001 1.3086369e-38
-0.21415715 0.47798577 1.4250001 1.3364031e-38
-0.20425001 0.47296429 1.4250001 1.3548073e-38
-0.19859526 0.47273812 1.4250001 1.3180381e-38
-0.28092858 0.48857147 1.4250001 1.4380681e-38
-0.27712861 0.48667145 1.4250001 1.4194834e-38
-0.25107145 0.48314288 1.4250001 1.3458024e-38
-0.24409188 0.48294902 1.4250001 1.3364737e-38
-0.23478572 0.48314291 1.4250001 1.3179278e-38
-0.22392859 0.48566329 1.4250001 1.2900902e-38
-0.21578573 0.48178574 1.4250001 1.2904849e-38
-0.28092858 0.49264288 1.4250001 1.4104105e-38
-0.27821431 0.49264288 1.4250001 1.3645285e-38
-0.29287431 0.46942005 1.437 1.0326163e-38
-0.28876859 0.46942005 1.437 1.2998861e-38
-0.23402572 0.46942005 1.437 1.299346e-38
-0.22307716 0.46942005 1.437 1.2443507e-38
-0.21431831 0.4683252 1.4370002 1.2719376e-38
-0.20441869 0.46575144 1.4360771 1.2719743e-38
-0.28320032 0.47362512 1.4350002 1.4376737e-38
-0.27547717 0.47576141 1.4355001 1.4009396e-38
-0.26522574 0.47576147 1.4355001 1.3733169e-38
-0.25444454 0.47569066 1.4352859 1.2720817e-38
-0.24514434 0.47594628 1.434 1.2812638e-38
-0.23509088 0.4757359 1.4346001 1.2995255e-38
-0.22428954 0.47547245 1.4360001 1.2627179e-38
-0.2153286 0.47453997 1.4325001 1.3179286e-38
-0.2063366 0.47127604 1.4310001 1.3271486e-38
-0.28211144 0.48381433 1.4310001 1.4011195e-38
-0.27543932 0.48202074 1.4317501 1.3826448e-38
-0.23032288 0.48381433 1.4310001 1.3455863e-38
-0.22617593 0.48254332 1.4318573 1.318071e-38
-0.20672403 0.45733204 1.4490002 1.299668e-38
-0.29312479 0.46744096 1.4450001 1.0598881e-38
-0.28670764 0.46790099 1.4450001 1.4286704e-38
-0.27475554 0.46828371 1.4455715 1.3917202e-38
-0.26507878 0.46816781 1.4464288 1.3089246e-38
-0.25548124 0.46828371 1.4455717 1.2444954e-38
-0.2451447 0.46736234 1.4468184 1.2811936e-38
-0.23513487 0.46723548 1.4472002 1.262647e-38
-0.22502516 0.46712294 1.4460001 1.253499e-38
-0.21492131 0.46500805 1.4457273 1.281194e-38
-0.20545572 0.46107292 1.4430001 1.2812293e-38
-0.28447717 0.47138005 1.4430002 1.4559344e-38
-0.27485716 0.47138003 1.4430001 1.3823933e-38
-0.26523718 0.47138005 1.4430002 1.3456954e-38
-0.25589204 0.47192976 1.4430001 1.2905201e-38
-0.24434803 0.47192976 1.4430001 1.2811936e-38
-0.23500288 0.4727543 1.4430001 1.3085656e-38
-0.22950573 0.4727543 1.4430001 1.2626471e-38
-0.24250002 0.45867145 1.455 1.2904125e-38
-0.23557144 0.45867145 1.455 1.2629344e-38
-0.22864287 0.45867145 1.455 1.2171955e-38
-0.21409288 0.45797861 1.455 1.2719729e-38
-0.20647144 0.45312864 1.4550002 1.2905929e-38
-0.29515716 0.46658981 1.4550002 1.3642788e-38
-0.28507924 0.46622992 1.4550002 1.5301215e-38
-0.27437145 0.46560001 1.455 1.4008681e-38
-0.26411718 0.46587715 1.455 1.3548065e-38
-0.25556535 0.46540207 1.4550002 1.3088517e-38
-0.24527147 0.46375245 1.4550002 1.2996323e-38
-0.23510954 0.46329054 1.455 1.2626827e-38
-0.22448573 0.46282864 1.455 1.2349883e-38
-0.21478572 0.46213573 1.455 1.271973e-38
-0.22169144 0.44895718 1.4640001 1.3088163e-38
-0.21418653 0.4480927 1.4644288 1.2903046e-38
-0.20732287 0.44804001 1.4610001 1.2905219e-38
-0.29479715 0.45686573 1.4670001 1.419379e-38
-0.28529277 0.45644087 1.4664546 1.4194498e-38
-0.2753036 0.45744362 1.4655001 1.3916857e-38
-0.26540554 0.45549741 1.4662005 1.3549152e-38
-0.25509575 0.4550758 1.4650002 1.3549146e-38
-0.24472368 0.45479682 1.4635719 1.2811211e-38
-0.23481169 0.45449612 1.4642311 1.2995981e-38
-0.22523275 0.4546389 1.4619234 1.308781e-38
-0.21511191 0.45437765 1.4635003 1.2536057e-38
-0.20732287 0.4522143 1.4610001 1.2813741e-38
-0.30038574 0.46245432 1.4670001 1.5578538e-38
-0.29538667 0.46258482 1.4630002 1.5668921e-38
-0.28543812 0.46226954 1.4620001 1.428563e-38
-0.27550286 0.46195433 1.4610002 1.4009396e-38
-0.26483527 0.46241814 1.4610002 1.3640979e-38
-0.25463146 0.46195433 1.4610002 1.2903062e-38
-0.24813811 0.46149048 1.4610002 1.2996338e-38
-0.22402 0.46056288 1.4610002 1.2810523e-38
-0.23988859 0.44751146 1.473 1.3731769e-38
-0.22165143 0.44751146 1.473 1.3271476e-38
-0.21407603 0.44526687 1.473 1.3362227e-38
-0.29600286 0.45312291 1.473 1.4010485e-38
-0.27496004 0.45312291 1.473 1.3919004e-38
-0.26373717 0.45172003 1.473 1.3824303e-38
-0.2520467 0.45218766 1.473 1.336331e-38
-0.24550003 0.4503172 1.473 1.3271482e-38
-0.23596059 0.45087835 1.473 1.3363685e-38
-0.22726287 0.45031717 1.473 1.3180717e-38
-0.23917526 0.43730861 1.4860001 1.3917569e-38
-0.2923882 0.44749832 1.4860001 1.3733533e-38
-0.2851705 0.44792289 1.4860001 1.4284908e-38
-0.27396867 0.4472698 1.4849091 1.3918286e-38
-0.26460195 0.4454717 1.48375 1.4009044e-38
-0.25492862 0.44482389 1.4843334 1.3733526e-38
-0.24516107 0.44495732 1.4826248 1.3640618e-38
-0.23517358 0.4443416 1.4828235 1.3455512e-38
-0.2258019 0.44471741 1.4829999 1.3087805e-38
-0.2156989 0.44231504 1.4838181 1.3271464e-38
-0.30144572 0.45429146 1.4860001 1.3825733e-38
-0.2931864 0.45362508 1.4851429 1.3826093e-38
-0.28422269 0.45328593 1.4818 1.4103036e-38
-0.27823907 0.45195907 1.483 1.4194145e-38
-0.26546034 0.45245716 1.48 1.3917217e-38
-0.25653335 0.45245716 1.48 1.3640256e-38
-0.21557049 0.42971337 1.4990001 1.4010098e-38
-0.30265781 0.43759239 1.4966668 1.2169086e-38
-0.29617602 0.43786046 1.4943335 1.2720095e-38
-0.28552383 0.43827906 1.4990001 1.299632e-38
-0.27444744 0.43859717 1.4962001 1.363955e-38
-0.26444465 0.43657628 1.4946927 1.3640615e-38
-0.25474826 0.43691018 1.4943335 1.3273626e-38
-0.24520835 0.43671349 1.4945457 1.3733164e-38
-0.23482235 0.4369117 1.4943335 1.3825366e-38
-0.22474821 0.43689114 1.4957695 1.3548053e-38
-0.21563685 0.43582544 1.4955002 1.3639529e-38
-0.30490109 0.44483858 1.4950001 1.2811566e-38
-0.29612651 0.44418976 1.4920002 1.3273271e-38
-0.28534541 0.44331333 1.4943336 1.3456947e-38
-0.27653775 0.44288421 1.4928751 1.3642062e-38
-0.30480051 0.45292288 1.4955001 1.3179646e-38
-0.29887366 0.45233655 1.4920001 1.373282e-38
-0.20797144 0.41737717 1.506 1.3916109e-38
-0.2223143 0.42885146 1.506 1.4010465e-38
-0.21493798 0.42639267 1.506 1.4194852e-38
-0.3040686 0.43458861 1.506 1.2076167e-38
-0.29546288 0.43602288 1.506 1.2719743e-38
-0.28484914 0.43630973 1.506 1.2811942e-38
-0.27599758 0.43581802 1.506 1.3271488e-38
-0.26591659 0.4328675 1.506 1.345693e-38
-0.25530288 0.43315434 1.506 1.3365461e-38
-0.24526286 0.43315434 1.506 1.3272191e-38
-0.23522288 0.43315434 1.506 1.3549514e-38
-0.2257566 0.43286744 1.506 1.3733169e-38
-0.21562096 0.43267626 1.506 1.3916829e-38
-0.21555334 0.40940672 1.5190001 1.3549158e-38
-0.23219001 0.41736335 1.5190001 1.3180351e-38
-0.223261 0.41656959 1.5180001 1.3549497e-38
-0.214975 0.41551504 1.5149168 1.3640971e-38
-0.20880002 0.41616002 1.5120001 1.42831e-38
-0.30428225 0.42869562 1.5190001 1.1981473e-38
-0.29512 0.42821333 1.5190001 1.1981808e-38
-0.28499335 0.42821336 1.5190001 1.2627175e-38
-0.2748667 0.42821336 1.5190001 1.2994522e-38
-0.26447701 0.42571458 1.5190001 1.2628626e-38
-0.25481287 0.42420146 1.5165002 1.3180364e-38
-0.24466571 0.42460573 1.5150002 1.3548062e-38
-0.23486 0.42407542 1.5157695 1.3364391e-38
-0.22478859 0.42425433 1.5130002 1.3642418e-38
-0.21456002 0.42364803 1.5120001 1.373424e-38
-0.31103337 0.43255335 1.5190001 1.2166541e-38
-0.30509752 0.43332919 1.5128751 1.2166564e-38
-0.29478857 0.43261722 1.5120002 1.2535357e-38
-0.28560004 0.43248001 1.5120001 1.281194e-38
-0.27504003 0.43200001 1.5120001 1.3362952e-38
-0.26496002 0.43056002 1.5120001 1.2996316e-38
-0.25488001 0.43056005 1.5120001 1.3458737e-38
-0.24480002 0.43056002 1.5120001 1.3271467e-38
-0.23472002 0.43056005 1.5120001 1.3549149e-38
-0.22752002 0.43056002 1.5120001 1.3825728e-38
-0.22511907 0.40811908 1.5250001 1.2995973e-38
-0.21785715 0.40811908 1.5250001 1.3366196e-38
-0.29338098 0.41973811 1.5250001 1.1889258e-38
-0.28176191 0.41973811 1.5250001 1.2257675e-38
-0.27450001 0.41973814 1.5250001 1.2442428e-38
-0.26481748 0.41780159 1.5250001 1.2167284e-38
-0.25610319 0.41780159 1.5250001 1.2627542e-38
-0.24508931 0.41719642 1.5250001 1.2902331e-38
-0.2355762 0.41480002 1.525 1.2996317e-38
-0.22560321 0.41296035 1.5250001 1.327292e-38
-0.31226194 0.42700005 1.5250001 1.1889262e-38
-0.30562249 0.42596266 1.5250002 1.1981814e-38
-0.29483336 0.42409527 1.5250001 1.1798139e-38
-0.28466669 0.42409527 1.5250001 1.2534255e-38
-0.27450001 0.42409533 1.5250001 1.2902684e-38
-0.2686905 0.42264289 1.5250001 1.2628266e-38
-0.31226194 0.43135718 1.5250001 1.2073642e-38
-0.30935717 0.43135718 1.5250001 1.2165492e-38
-0.30193716 0.40893432 1.539 1.1704871e-38
-0.2960743 0.40893432 1.539 1.2348442e-38
-0.28728002 0.40893432 1.539 1.1704158e-38
-0.27408859 0.40893432 1.539 1.1429369e-38
-0.26529431 0.40893432 1.539 1.198288e-38
-0.25503433 0.40893432 1.539 1.2258758e-38
-0.24355122 0.40721521 1.5374445 1.2350966e-38
-0.23471756 0.40609053 1.5371332 1.2534623e-38
-0.22510269 0.40693623 1.5347999 1.2812293e-38
-0.31415147 0.41577435 1.539 1.1611968e-38
-0.30509862 0.41510102 1.5384614 1.1611949e-38
-0.29464522 0.41601238 1.536846 1.2072923e-38
-0.2851643 0.41530961 1.5354999 1.1613027e-38
-0.2758916 0.41489947 1.5352306 1.1981808e-38
-0.26649234 0.4137643 1.5340999 1.207471e-38
-0.25544843 0.41374537 1.5361999 1.2350231e-38
-0.24628049 0.41322273 1.5331668 1.2442439e-38
-0.23782478 0.41291049 1.5320001 1.2627178e-38
-0.31484973 0.42340174 1.5361999 1.1520831e-38
-0.30450341 0.42221147 1.5340002 1.1705569e-38
-0.29472762 0.4216648 1.5320001 1.1797774e-38
-0.2874324 0.4216648 1.5320001 1.1889973e-38
-0.31661335 0.43041909 1.5320001 1.1705961e-38
-0.27828002 0.39901528 1.5460001 1.1521554e-38
-0.24441525 0.39901528 1.5460001 1.2350208e-38
-0.23494998 0.39775321 1.5460002 1.2258766e-38
-0.22527429 0.39754289 1.5460002 1.2626817e-38
-0.21938477 0.39754289 1.5460001 1.3087456e-38
-0.31214479 0.40784955 1.5460001 1.2073286e-38
-0.30478287 0.4063772 1.5460002 1.1797428e-38
-0.29398543 0.40588638 1.5460002 1.21655e-38
-0.28416952 0.40527287 1.5460002 1.1614107e-38
-0.27533525 0.40490475 1.5460002 1.1152785e-38
-0.26502863 0.40490478 1.5460002 1.1798499e-38
-0.25435382 0.4052729 1.5460002 1.2166568e-38
-0.24662383 0.40416858 1.5460001 1.2350602e-38
-0.23607177 0.40196002 1.5460002 1.2718298e-38
-0.22468534 0.40313792 1.5460001 1.253463e-38
-0.32392383 0.4152115 1.5460002 1.1796712e-38
-0.31656191 0.41247705 1.5460002 1.1888549e-38
-0.30772763 0.41079432 1.5460001 1.1889259e-38
-0.29300383 0.41079432 1.5460001 1.216442e-38
-0.28269717 0.41079432 1.5460001 1.1428643e-38
-0.32343304 0.42355496 1.5460002 1.1705591e-38
-0.22037812 0.38898954 1.5530001 1.2625754e-38
-0.27460989 0.39786384 1.5530002 1.1705234e-38
-0.24404287 0.39786384 1.5530002 1.2258391e-38
-0.23516861 0.39490575 1.5530002 1.2442433e-38
-0.22407572 0.39416623 1.5530001 1.2534615e-38
-0.32317191 0.40895671 1.5530001 1.1797776e-38
-0.31545973 0.40589294 1.5530002 1.1521196e-38
-0.30497965 0.40318844 1.5530001 1.1888546e-38
-0.29492211 0.40200517 1.5530001 1.1613765e-38
-0.28545621 0.40156144 1.5530001 1.1614475e-38
-0.27362382 0.40082192 1.5530002 1.1613033e-38
-0.26474953 0.40082192 1.5530002 1.1981428e-38
-0.25661477 0.40156144 1.5530001 1.2258392e-38
-0.24995907 0.40230095 1.5530001 1.2074721e-38
-0.32982764 0.4156124 1.5530002 1.1888545e-38
-0.32982764 0.42152861 1.5530001 1.1888908e-38
-0.27310574 0.38951147 1.567 1.2255884e-38
-0.26415145 0.38951147 1.5670002 1.2258382e-38
-0.25519717 0.38951147 1.5670002 1.2258042e-38
-0.2447505 0.38951147 1.567 1.2442803e-38
-0.23329931 0.38833028 1.56525 1.2719023e-38
-0.22455393 0.38796958 1.5656 1.2626822e-38
-0.35966384 0.39548099 1.567 1.2071092e-38
-0.33280098 0.39846575 1.567 1.2073993e-38
-0.3255049 0.39647591 1.5670002 1.2441002e-38
-0.31489241 0.39846575 1.5670002 1.2532838e-38
-0.30534118 0.39727184 1.567 1.1798144e-38
-0.29509345 0.39733076 1.5649003 1.1338611e-38
-0.28560099 0.39626357 1.5637693 1.1428291e-38
-0.27455547 0.39537516 1.5644547 1.1704156e-38
-0.26432618 0.39637884 1.5630001 1.2073997e-38
-0.25462717 0.39608002 1.5635002 1.2534259e-38
-0.24498594 0.39411852 1.5628003 1.2534636e-38
-0.23425758 0.39269134 1.5610002 1.2626834e-38
-0.22553144 0.39312002 1.5600001 1.2350236e-38
-0.34324765 0.40592766 1.567 1.2441336e-38
-0.33541262 0.4048084 1.5670002 1.2074367e-38
-0.32573107 0.40411979 1.5629168 1.1522282e-38
-0.31493756 0.40212375 1.5630002 1.2073302e-38
-0.30479717 0.40192175 1.5642 1.1797062e-38
-0.33459148 0.41086006 1.5642 1.2165488e-38
-0.3013086 0.38825336 1.5740001 1.234952e-38
-0.2953124 0.38825339 1.5740001 1.2350247e-38
-0.28481907 0.38825336 1.5740001 1.2165495e-38
-0.27432573 0.38825339 1.5740001 1.2256952e-38
-0.26473185 0.38705415 1.5740002 1.2166554e-38
-0.25483811 0.38585493 1.5740002 1.2349884e-38
-0.24434477 0.38675433 1.5740002 1.2626111e-38
-0.23610002 0.3867543 1.5740001 1.2810858e-38
-0.2254996 0.38482702 1.5740002 1.2994521e-38
-0.34388158 0.39664802 1.5740002 1.2810137e-38
-0.33428767 0.39424956 1.5740002 1.2717941e-38
-0.32529336 0.3927505 1.5740001 1.2901974e-38
-0.31480002 0.39574862 1.5740002 1.2533916e-38
-0.30310747 0.39424956 1.5740002 1.1982891e-38
-0.29591203 0.39245069 1.5740002 1.2074018e-38
-0.28391966 0.39185107 1.5740002 1.1796709e-38
-0.27432573 0.39125144 1.5740001 1.2164403e-38
-0.35227621 0.40024573 1.5740001 1.2625731e-38
-0.34461442 0.40224445 1.5740002 1.2442062e-38
-0.33728573 0.40024573 1.5740001 1.2258391e-38
-0.30115336 0.37984669 1.5890001 1.2535346e-38
-0.29661337 0.37984669 1.5890001 1.2443515e-38
-0.28299335 0.37984669 1.5890001 1.3178223e-38
-0.27593112 0.37984669 1.5890001 1.2626111e-38
-0.26483339 0.37984669 1.5890001 1.262646e-38
-0.25499666 0.37909001 1.5890001 1.2717942e-38
-0.24516001 0.37984669 1.5890001 1.2903411e-38
-0.22649556 0.37883782 1.5890001 1.3271097e-38
-0.34050003 0.38892668 1.5890001 1.2903774e-38
-0.33511052 0.38945338 1.585 1.2995614e-38
-0.32529104 0.38952863 1.5844287 1.3087077e-38
-0.3136903 0.38803205 1.5866001 1.2902698e-38
-0.30517411 0.38603526 1.5854445 1.2532839e-38
-0.29538333 0.3851099 1.5846366 1.2259132e-38
-0.28547999 0.38554406 1.5860001 1.253354e-38
-0.27591643 0.38500991 1.5865999 1.2166202e-38
-0.26565105 0.38309675 1.5810002 1.2259124e-38
-0.255068 0.38215032 1.5810002 1.2441721e-38
-0.24509676 0.38306248 1.5844289 1.2718667e-38
-0.23495787 0.38392717 1.5840002 1.2810865e-38
-0.22585715 0.38094574 1.5810001 1.3178545e-38
-0.36370444 0.39498004 1.5890001 1.1891049e-38
-0.35598913 0.3952041 1.5838572 1.2534257e-38
-0.34605929 0.39360356 1.585 1.2718668e-38
-0.33878574 0.39299145 1.5810001 1.2810145e-38
-0.32222289 0.39299145 1.5810001 1.2903047e-38
-0.31469434 0.39299148 1.5810001 1.2442796e-38
-0.30716574 0.39299145 1.5810001 1.2350233e-38
-0.35685432 0.40202573 1.5810001 1.2165102e-38
-0.24168001 0.36936003 1.5960001 1.3365467e-38
-0.23560002 0.36936006 1.5960001 1.3363675e-38
-0.22800002 0.36783999 1.5960001 1.3824643e-38
-0.31160003 0.37848002 1.5960001 1.3272543e-38
-0.30552003 0.37696001 1.5960001 1.3088519e-38
-0.29488 0.37696004 1.596 1.2994882e-38
-0.28380573 0.37630862 1.5960001 1.3363309e-38
-0.27511999 0.37582004 1.596 1.3179986e-38
-0.266 0.37726402 1.5960001 1.2903762e-38
-0.25505602 0.37544003 1.596 1.2995607e-38
-0.24472004 0.37544003 1.596 1.2996329e-38
-0.23560002 0.37544003 1.596 1.2812659e-38
-0.22830403 0.37483203 1.5960001 1.3364385e-38
-0.36125335 0.38658673 1.5960001 1.2074019e-38
-0.35372576 0.38542861 1.5960001 1.2535339e-38
-0.34504002 0.38456002 1.596 1.2994887e-38
-0.33635432 0.38542864 1.5960001 1.2903406e-38
-0.32528004 0.38608 1.596 1.2719736e-38
-0.31565335 0.38354671 1.5960001 1.3087082e-38
-0.30704004 0.38152003 1.5960001 1.2903404e-38
-0.29184002 0.38152003 1.5960001 1.2903404e-38
-0.28728002 0.38304001 1.5960001 1.3176764e-38
-0.27512002 0.38152003 1.5960001 1.2163339e-38
-0.23559999 0.38152003 1.5960001 1.2995963e-38
-0.37240002 0.39368004 1.5960001 1.2351657e-38
-0.36480004 0.39216003 1.5960001 1.2258387e-38
-0.35416004 0.39064002 1.5960001 1.2627536e-38
-0.34656 0.39064002 1.5960001 1.2811935e-38
-0.22747335 0.3587667 1.603 1.438138e-38
-0.29464668 0.36792669 1.603 1.3732812e-38
-0.28472337 0.36716336 1.603 1.3824291e-38
-0.27480003 0.36487338 1.603 1.3732082e-38
-0.26411334 0.36487335 1.6029999 1.3731377e-38
-0.25495332 0.36487332 1.6029999 1.3548059e-38
-0.24579334 0.365255 1.6029999 1.3824296e-38
-0.23552306 0.36459577 1.603 1.3825356e-38
-0.22747335 0.3633467 1.603 1.3824261e-38
-0.36182001 0.3770867 1.603 1.2627533e-38
-0.35571337 0.37708673 1.603 1.2628244e-38
-0.3438817 0.37517834 1.6029999 1.2627192e-38
-0.33434001 0.37586537 1.603 1.2534996e-38
-0.32518005 0.37708673 1.603 1.3178925e-38
-0.31500226 0.37505111 1.603 1.3178549e-38
-0.30533335 0.37250671 1.6029999 1.3087803e-38
-0.29464671 0.37250671 1.603 1.3179635e-38
-0.28609738 0.37220135 1.603 1.3455503e-38
-0.27429113 0.3719978 1.603 1.3639171e-38
-0.26454955 0.37316099 1.603 1.3456219e-38
-0.25495338 0.37098002 1.603 1.336475e-38
-0.24732001 0.37098002 1.603 1.3551655e-38
-0.37098002 0.38777333 1.603 1.1335002e-38
-0.36487335 0.38406575 1.603 1.1982174e-38
-0.35632405 0.38136137 1.603 1.2719725e-38
-0.34502667 0.38014004 1.603 1.3086721e-38
-0.33434004 0.38166672 1.603 1.2535352e-38
-0.32518002 0.38166672 1.603 1.3087074e-38
-0.31754667 0.38014004 1.603 1.3088872e-38
-0.3719978 0.39642447 1.603 1.2166183e-38
-0.36792669 0.39235336 1.603 1.1982163e-38
-0.28199431 0.35904193 1.618 1.3364014e-38
-0.27364573 0.35595283 1.6124001 1.3087791e-38
-0.26600367 0.35672653 1.6145 1.3271829e-38
-0.2557981 0.35904193 1.618 1.3456221e-38
-0.24398415 0.35801464 1.618 1.3364394e-38
-0.23606029 0.3566187 1.6170001 1.3733515e-38
-0.22910526 0.35672432 1.6145 1.4560391e-38
-0.34210953 0.36877939 1.6156667 1.244279e-38
-0.33335942 0.36726034 1.618 1.2534618e-38
-0.32514098 0.36674672 1.618 1.2349884e-38
-0.31468192 0.36687133 1.6117779 1.2718663e-38
-0.30546877 0.36686984 1.6117779 1.3179637e-38
-0.29633164 0.36542338 1.6121668 1.3271125e-38
-0.28645432 0.36363381 1.6127501 1.3455509e-38
-0.27463716 0.36055717 1.6110001 1.3549118e-38
-0.26543146 0.36055717 1.6110001 1.3364389e-38
-0.25551647 0.36173218 1.61625 1.3455872e-38
-0.24498692 0.361716 1.6127501 1.3456238e-38
-0.23474574 0.36055717 1.6110001 1.3826068e-38
-0.37136954 0.37753335 1.618 1.2442437e-38
-0.36425775 0.37655067 1.6138 1.2443864e-38
-0.35527706 0.37372702 1.6148889 1.2166201e-38
-0.34611166 0.37195435 1.6152 1.244244e-38
-0.3353135 0.37264332 1.6140001 1.2627185e-38
-0.32523382 0.3735486 1.6129092 1.2810494e-38
-0.31759715 0.37283146 1.6110001 1.2900156e-38
-0.37136954 0.38061526 1.618 1.2258409e-38
-0.36976287 0.38357145 1.6110001 1.1798862e-38
-0.23073716 0.33913717 1.626 1.0687137e-38
-0.22764002 0.33758861 1.626 1.0320143e-38
-0.24002859 0.34842861 1.626 1.216512e-38
-0.23259544 0.34657034 1.626 1.1890322e-38
-0.32365143 0.35772002 1.626 1.2260189e-38
-0.31358573 0.35694572 1.626 1.1890676e-38
-0.30816573 0.35772002 1.626 1.2349153e-38
-0.28250369 0.35506532 1.6260002 1.2717581e-38
-0.275336 0.35338402 1.626 1.26261e-38
-0.26480576 0.35617146 1.6260002 1.3179271e-38
-0.25551429 0.35617146 1.6260002 1.3180347e-38
-0.24506146 0.35423571 1.6260002 1.2995603e-38
-0.23383431 0.35307428 1.6260002 1.308779e-38
-0.36236572 0.36701146 1.626 1.2900512e-38
-0.35462284 0.36701149 1.6260002 1.1614096e-38
-0.34533146 0.36623716 1.626 1.2258035e-38
-0.33604002 0.36443052 1.6260002 1.2442778e-38
-0.32520002 0.36236572 1.6260002 1.2443865e-38
-0.31436002 0.36236572 1.6260002 1.2995245e-38
-0.30568799 0.36267549 1.626 1.3086356e-38
-0.29500288 0.36314005 1.626 1.3086728e-38
-0.28803432 0.36081716 1.626 1.3179994e-38
-0.25241715 0.36081716 1.626 1.3272201e-38
-0.24932002 0.36081716 1.626 1.3180367e-38
-0.37134749 0.37382516 1.626 1.2258762e-38
-0.36453375 0.37258634 1.626 1.2443137e-38
-0.35462284 0.3701086 1.6260002 1.1890329e-38
-0.34842861 0.3701086 1.626 1.2350229e-38
-0.33604002 0.3701086 1.626 1.2719723e-38
-0.24120954 0.33769336 1.6340001 1.0505942e-38
-0.23498479 0.33769339 1.6340002 1.0228649e-38
-0.30034479 0.34703049 1.6340001 1.1892098e-38
-0.28322667 0.34703049 1.6340001 1.170448e-38
-0.27544576 0.34703049 1.6340002 1.189031e-38
-0.26455241 0.34703049 1.6340001 1.2072203e-38
-0.255734 0.34703049 1.6340002 1.1888172e-38
-0.2443219 0.34391811 1.6339999 1.1334639e-38
-0.23654097 0.34391814 1.6340001 1.1244959e-38
-0.36466736 0.35844254 1.6340002 1.1519401e-38
-0.35325527 0.35948002 1.6340001 1.1613749e-38
-0.34314004 0.35870194 1.6340001 1.1982519e-38
-0.33458099 0.35792384 1.6340001 1.2074343e-38
-0.32586631 0.35636765 1.6340001 1.2075076e-38
-0.31652915 0.3545002 1.6340001 1.1336433e-38
-0.30423528 0.35558957 1.6340002 1.2166195e-38
-0.29412001 0.35481149 1.6340002 1.253426e-38
-0.28602782 0.35201031 1.6340001 1.2257313e-38
-0.27544576 0.3501429 1.6340002 1.2258025e-38
-0.2661086 0.35169908 1.6340001 1.2532823e-38
-0.25521526 0.35169908 1.6339999 1.2533897e-38
-0.24587812 0.35014287 1.6340001 1.2256599e-38
-0.37192956 0.36881718 1.6340001 1.1981442e-38
-0.3661494 0.36481556 1.6340001 1.1888526e-38
-0.35481143 0.36414859 1.6339999 1.1613019e-38
-0.34391811 0.36337048 1.6340001 1.207472e-38
-0.33769336 0.3625924 1.6340001 1.2259097e-38
-0.30190098 0.3625924 1.6340001 1.2994161e-38
-0.29723239 0.3625924 1.6340001 1.308637e-38
-0.36881718 0.37192956 1.6340001 1.2166551e-38
-0.2773 0.33839622 1.645 1.0230806e-38
-0.25332525 0.33723909 1.6470001 1.0321205e-38
-0.24520372 0.33620968 1.6475456 9.8616548e-39
-0.23489839 0.33406278 1.649 9.1226506e-39
-0.3439343 0.34707528 1.649 1.1242088e-38
-0.3337262 0.34629002 1.649 1.0965865e-38
-0.32430333 0.34629002 1.649 1.1058771e-38
-0.31463951 0.34527653 1.6454445 1.0968015e-38
-0.30571803 0.34415668 1.6446364 1.1427543e-38
-0.29556021 0.34423333 1.6446924 1.1334988e-38
-0.28579146 0.34338689 1.6434001 1.1243151e-38
-0.2743094 0.34370294 1.6424545 1.124388e-38
-0.26455209 0.34281683 1.6436667 1.1151687e-38
-0.25537071 0.34367505 1.6427777 1.1150608e-38
-0.37039718 0.35633147 1.641 1.1334642e-38
-0.365132 0.35467905 1.6454445 1.1335002e-38
-0.3552236 0.35591656 1.6463333 1.1520471e-38
-0.34528956 0.3537457 1.6450001 1.152011e-38
-0.33551338 0.35220924 1.6436667 1.1520107e-38
-0.3256048 0.35243335 1.6463333 1.1428263e-38
-0.3153024 0.3512862 1.6429999 1.0694308e-38
-0.30632001 0.35164288 1.641 1.1799197e-38
-0.37248099 0.36414576 1.6410002 1.1428266e-38
-0.36102003 0.36102003 1.641 1.1613407e-38
-0.3547686 0.36102003 1.641 1.170522e-38
-0.28247908 0.32982191 1.6570001 9.3077565e-39
-0.26417318 0.32792822 1.6569999 8.9386475e-39
-0.25354734 0.32719177 1.6569999 8.4772868e-39
-0.2446048 0.32824385 1.6569999 8.2003426e-39
-0.23474167 0.32706025 1.6569998 7.9244675e-39
-0.31088477 0.3392905 1.6570001 1.0690697e-38
-0.3045724 0.33771241 1.6569999 1.0413398e-38
-0.29510385 0.33771241 1.6569999 1.0321918e-38
-0.28518438 0.33703607 1.6569999 1.004533e-38
-0.27553543 0.3373968 1.6569999 1.0046047e-38
-0.26512003 0.33613437 1.6569998 1.0044615e-38
-0.2548624 0.33376718 1.6570001 9.4910898e-39
-0.24460477 0.33297813 1.6570001 8.9371999e-39
-0.37085241 0.34718096 1.6570001 1.0044621e-38
-0.3639088 0.3474966 1.6569999 1.0505231e-38
-0.35444021 0.3474966 1.6569999 1.087366e-38
-0.34560287 0.34402478 1.6569999 1.0414131e-38
-0.33676556 0.34370917 1.6569999 1.0503814e-38
-0.32613972 0.34349877 1.6569999 1.0597077e-38
-0.31404096 0.34244668 1.6570001 1.0874377e-38
-0.36454004 0.3519153 1.6570001 1.0966926e-38
-0.3558605 0.35270432 1.6570001 1.1242445e-38
-0.26164287 0.3187286 1.6650001 7.1844054e-39
-0.25688574 0.3187286 1.6650001 6.999647e-39
-0.24737144 0.3187286 1.6650001 7.0021399e-39
-0.22992858 0.3187286 1.6650001 6.8163333e-39
-0.29494286 0.32824287 1.6650001 8.6599152e-39
-0.28305 0.32745004 1.6650001 8.5701901e-39
-0.27369431 0.3269743 1.6650002 8.2939731e-39
-0.26418003 0.32380289 1.6650002 8.0152535e-39
-0.25530005 0.32401431 1.6650002 7.8315558e-39
-0.24578574 0.32348573 1.6650002 7.464197e-39
-0.2370643 0.32269287 1.6650001 7.1876059e-39
-0.33458576 0.3377572 1.6650002 9.3067055e-39
-0.32586432 0.33696431 1.6650001 9.583277e-39
-0.31450003 0.33564287 1.6650002 9.8605786e-39
-0.30604288 0.333 1.6650002 9.585435e-39
-0.29494286 0.333 1.6650001 9.4936037e-39
-0.28384286 0.333 1.6650001 9.3999591e-39
-0.27496287 0.33268285 1.6650002 9.3077565e-39
-0.26164287 0.33141431 1.6650001 9.3070545e-39
-0.25847146 0.33141431 1.6650001 9.1230093e-39
-0.37264287 0.34410003 1.6650001 9.4006934e-39
-0.3669343 0.3441 1.6650002 9.6769076e-39
-0.35638931 0.34291074 1.6650001 9.67656e-39
-0.3441 0.34092861 1.6650002 9.5847316e-39
-0.33458576 0.34092861 1.6650002 9.8598737e-39
-0.32507145 0.34092861 1.6650002 1.0228645e-38
-0.31714287 0.34092858 1.6650001 1.0414468e-38
-0.23103335 0.31707335 1.6730001 6.355365e-39
-0.32982001 0.32982001 1.6730001 8.2007097e-39
-0.31309003 0.32902336 1.6730001 8.1103147e-39
-0.30432668 0.32716447 1.6730002 8.3840374e-39
-0.29397002 0.32583669 1.6730001 7.9226697e-39
-0.28680003 0.32504004 1.6730001 7.9237389e-39
-0.27246001 0.32344669 1.6730001 7.2794821e-39
-0.26768002 0.32185334 1.6730001 7.4599245e-39
-0.25546446 0.32238448 1.6730001 7.3698574e-39
-0.24218668 0.32026002 1.6730001 6.7262579e-39
-0.23581335 0.32026002 1.6730001 6.6333616e-39
-0.36567003 0.33778667 1.6730001 8.4780099e-39
-0.35571167 0.33659166 1.6730002 8.3854779e-39
-0.34620863 0.33710381 1.6730002 8.5698552e-39
-0.33619332 0.33619338 1.6730001 8.7517437e-39
-0.32397783 0.33460003 1.6730002 8.9389824e-39
-0.31707335 0.33300668 1.6730001 9.031178e-39
-0.37284005 0.3425667 1.6730001 8.9393551e-39
-0.36487335 0.3425667 1.6730001 9.2162938e-39
-0.28657049 0.31858954 1.6810001 7.279831e-39
-0.27216193 0.31858954 1.6810001 7.0932831e-39
-0.26308987 0.31752226 1.6810001 6.8156145e-39
-0.25241685 0.31752226 1.6810001 6.3553412e-39
-0.24334478 0.31858954 1.6810001 5.8972118e-39
-0.23534003 0.31752226 1.6810001 6.0794829e-39
-0.36501718 0.32712799 1.6810001 7.7404322e-39
-0.35381049 0.32691452 1.6810001 8.4762148e-39
-0.34420478 0.32819527 1.6810001 8.1092287e-39
-0.33459908 0.32819527 1.6810001 8.0184708e-39
-0.31538767 0.32712796 1.6810001 7.465667e-39
-0.30578193 0.32339239 1.6810001 8.2918221e-39
-0.29681659 0.3230722 1.6810001 7.8315502e-39
-0.28336859 0.32362112 1.6810001 7.371993e-39
-0.27456337 0.3225919 1.6810001 6.6351791e-39
-0.36555085 0.3342433 1.681 8.201416e-39
-0.35381049 0.33219767 1.6810001 8.0181233e-39
-0.34420478 0.33299816 1.6810001 8.1088756e-39
-0.3362 0.33299813 1.6810001 8.2007181e-39
-0.32579383 0.33219767 1.6810001 8.2932374e-39
-0.37462288 0.34100288 1.6810001 8.2914732e-39
-0.25065717 0.29917145 1.6980001 5.7117654e-39
-0.24418859 0.29917145 1.6980002 5.527377e-39
-0.23610288 0.29917145 1.6980001 5.5270392e-39
-0.28623432 0.30887431 1.6980002 6.4478969e-39
-0.27491429 0.30887431 1.6980001 6.2638756e-39
-0.26458287 0.30814669 1.694 5.9876488e-39
-0.25342941 0.30656415 1.6980002 6.1705884e-39
-0.24378428 0.30604431 1.6980001 5.7117752e-39
-0.23540983 0.3061021 1.6980002 5.8954588e-39
-0.37194288 0.31857717 1.6980001 7.4620516e-39
-0.36385721 0.31857717 1.6980002 7.3702274e-39
-0.35415432 0.31857717 1.6980002 7.4627845e-39
-0.34445143 0.31857717 1.6980002 7.4631391e-39
-0.33382455 0.31580496 1.6980002 7.2780401e-39
-0.32470542 0.31500936 1.6962222 7.2773157e-39
-0.31538045 0.31583816 1.6957145 7.4624188e-39
-0.3053686 0.31664288 1.692 7.5538956e-39
-0.29547238 0.31484255 1.6953335 7.1858319e-39
-0.28578481 0.31484258 1.6953332 6.9106771e-39
-0.27500004 0.31463951 1.6958183 6.7252111e-39
-0.26490369 0.31423974 1.6945714 6.3564244e-39
-0.25528109 0.31448492 1.6953332 5.9865628e-39
-0.24522477 0.3145943 1.694 5.3430025e-39
-0.23553589 0.31399137 1.6926668 5.711076e-39
-0.38200289 0.32708097 1.6960001 6.8177823e-39
-0.37508765 0.32526287 1.6935556 7.1872668e-39
-0.36520001 0.32368049 1.6930001 7.5560395e-39
-0.35480198 0.32302779 1.6922859 7.831567e-39
-0.34551558 0.3240197 1.6926668 7.7400903e-39
-0.33603284 0.32458732 1.6900003 7.8329978e-39
-0.32544574 0.32480192 1.6900005 8.1081441e-39
-0.31431705 0.32259458 1.6900003 8.1081455e-39
-0.30420002 0.32029527 1.6900001 7.8315614e-39
-0.29454291 0.32029527 1.6900001 7.4631292e-39
-0.2832762 0.32029524 1.6900001 7.0039588e-39
-0.27844763 0.32029524 1.6900001 6.5437051e-39
-0.26557145 0.32029524 1.6900001 7.0925601e-39
-0.25913334 0.32029524 1.6900001 6.6301442e-39
-0.24947621 0.32029524 1.6900001 6.1723834e-39
-0.38145718 0.33317146 1.6900001 7.2740801e-39
-0.37630668 0.33574671 1.6900002 7.8297622e-39
-0.38002861 0.34121716 1.6980001 8.0123696e-39
-0.25346288 0.29733145 1.7060001 5.5263008e-39
-0.24533908 0.29733145 1.7060001 5.4351869e-39
-0.23721525 0.29733145 1.7060001 5.4348492e-39
-0.32982668 0.30708003 1.7060001 7.0007176e-39
-0.29408193 0.30708003 1.7060001 6.4486382e-39
-0.28433335 0.30545527 1.7060002 6.1713423e-39
-0.27523467 0.30578023 1.7060002 6.0791354e-39
-0.2652424 0.30423671 1.7060002 5.8954406e-39
-0.25671241 0.30220574 1.7060001 5.9865572e-39
-0.24858859 0.3038305 1.7060001 5.7114039e-39
-0.23234098 0.3038305 1.7060001 5.7110535e-39
-0.36638385 0.31601623 1.7060001 7.1851242e-39
-0.35582289 0.3160162 1.7060001 7.1861962e-39
-0.34607431 0.31682858 1.7060001 7.3709392e-39
-0.33713812 0.3127667 1.7060001 7.0932873e-39
-0.32495239 0.31032956 1.7060001 6.9092492e-39
-0.31439146 0.3127667 1.7060001 7.1833306e-39
-0.3044804 0.31422898 1.7060002 7.2762367e-39
-0.29570669 0.31032956 1.7060001 6.8170564e-39
-0.2615867 0.31032956 1.7060001 5.8958077e-39
-0.38181907 0.3200781 1.7060001 7.2769485e-39
-0.37856954 0.3200781 1.7060001 7.36914e-39
-0.2825667 0.29890001 1.715 5.8039793e-39
-0.27276668 0.29890001 1.715 5.803968e-39
-0.26623335 0.29890001 1.715 5.619581e-39
-0.25643334 0.29563335 1.715 5.3430039e-39
-0.24598001 0.29498002 1.715 5.3433612e-39
-0.23520002 0.29726666 1.715 5.342292e-39
-0.37730002 0.30870003 1.715 6.7241377e-39
-0.36358002 0.30739337 1.715 6.6333854e-39
-0.35443339 0.30870003 1.715 6.815983e-39
-0.34463334 0.30739337 1.715 7.0003658e-39
-0.33537781 0.30597782 1.715 6.4493459e-39
-0.32503337 0.30739337 1.715 6.7255642e-39
-0.31523335 0.30870003 1.715 6.6312442e-39
-0.30461669 0.30788335 1.715 6.4479221e-39
-0.29481667 0.30461669 1.715 5.8961875e-39
-0.28583336 0.3021667 1.715 5.8039947e-39
-0.2752167 0.30298337 1.715 5.8958148e-39
-0.26296669 0.3021667 1.715 5.9869188e-39
-0.23030001 0.3021667 1.715 5.3426368e-39
-0.38220006 0.31523335 1.715 6.907087e-39
-0.37496671 0.31476671 1.7150002 7.0000085e-39
-0.36423337 0.3136 1.715 6.9096192e-39
-0.35378003 0.31327337 1.715 7.0018036e-39
-0.3452867 0.31327334 1.715 7.0943565e-39
-0.3136 0.31196669 1.715 6.9986016e-39
-0.30706668 0.31196669 1.715 6.907471e-39
-0.38383335 0.32503337 1.715 7.0018008e-39
-0.39546955 0.27732098 1.723 6.261712e-39
-0.27075717 0.28716668 1.723 5.5273727e-39
-0.26419336 0.28716668 1.723 5.2511432e-39
-0.25434762 0.28716668 1.723 5.2511586e-39
-0.24614286 0.28716668 1.723 4.9756549e-39
-0.2248105 0.28716668 1.723 5.342292e-39
-0.34952289 0.29701239 1.723 6.1724016e-39
-0.33311334 0.29701239 1.723 5.9880174e-39
-0.30357623 0.29701239 1.723 5.98656e-39
-0.29291001 0.29619193 1.723 5.3447962e-39
-0.28388476 0.29537147 1.7229999 5.4366471e-39
-0.27362883 0.29414073 1.7229998 5.5273966e-39
-0.26460359 0.29332027 1.7229998 5.2511726e-39
-0.25516811 0.29126903 1.723 5.3426466e-39
-0.24450192 0.29208955 1.7229999 4.792707e-39
-0.23418738 0.29373047 1.7229999 5.1579064e-39
-0.22645146 0.2937305 1.7229999 5.1582665e-39
-0.3834359 0.30576417 1.723 6.2653161e-39
-0.37577814 0.30521715 1.7229999 6.632291e-39
-0.36640126 0.3026385 1.7229999 6.2646057e-39
-0.35608667 0.3035762 1.7229998 6.4482837e-39
-0.346241 0.30248225 1.7229999 6.7237719e-39
-0.33639523 0.30160707 1.7229999 5.9894439e-39
-0.32654959 0.30263853 1.7229999 6.263856e-39
-0.31506291 0.30357623 1.7229998 6.171694e-39
-0.30404508 0.30263853 1.7229999 5.8954476e-39
-0.29455096 0.30111477 1.723 5.4366275e-39
-0.28388476 0.30029431 1.723 5.7121438e-39
-0.27732098 0.30029431 1.723 5.8036149e-39
-0.23137429 0.30029431 1.723 5.2504552e-39
-0.3839829 0.31014001 1.723 6.4489857e-39
-0.37413716 0.31014001 1.723 6.9078087e-39
-0.39258668 0.27712002 1.7320001 5.8936497e-39
-0.25237715 0.27876955 1.7320001 5.158593e-39
-0.24511926 0.27744994 1.7320002 5.0664156e-39
-0.23588192 0.27712005 1.7320002 4.6990666e-39
-0.34145144 0.2886667 1.7320001 5.6206768e-39
-0.31505907 0.2886667 1.7320001 5.804331e-39
-0.30516192 0.2886667 1.7320001 5.6195684e-39
-0.29526478 0.2886667 1.7320001 5.4366078e-39
-0.28442508 0.28583896 1.7320004 5.1607454e-39
-0.27657017 0.28591752 1.7320002 4.9756479e-39
-0.26557335 0.28371811 1.7320002 5.1589588e-39
-0.25485146 0.28454286 1.7320001 5.158963e-39
-0.24577907 0.28536764 1.7320002 5.2508153e-39
-0.23541065 0.28536767 1.7320004 5.1582623e-39
-0.22845906 0.28536764 1.7320001 5.1582609e-39
-0.37114289 0.29856384 1.7320001 6.9985638e-39
-0.36407349 0.29620737 1.7320004 5.8969064e-39
-0.35506004 0.29485238 1.7320002 5.9880174e-39
-0.34475049 0.29526478 1.7320002 5.4373617e-39
-0.33485335 0.29485238 1.7320002 5.8958274e-39
-0.32495621 0.29526478 1.7320002 5.8039849e-39
-0.31505907 0.29526478 1.7320002 5.8951057e-39
-0.30516192 0.29361528 1.7320002 5.8028904e-39
-0.2959246 0.29328534 1.7320002 5.3455024e-39
-0.28536767 0.29196572 1.7320001 5.3455108e-39
-0.27876955 0.29196572 1.7320001 5.2518775e-39
-0.23588192 0.29196572 1.7320001 5.0660695e-39
-0.38104004 0.30186287 1.7320001 6.4485892e-39
-0.37609145 0.30186287 1.7320001 6.7237607e-39
-0.34804955 0.30516192 1.7320001 6.9067283e-39
-0.26032096 0.27690193 1.7410001 4.7923244e-39
-0.2527411 0.2740595 1.7410002 5.1585944e-39
-0.24456906 0.2727567 1.7410001 4.8830992e-39
-0.23710763 0.27358574 1.7410001 4.8820188e-39
-0.39462668 0.2851924 1.7410001 5.8947273e-39
-0.31006384 0.28685048 1.7410001 5.7121283e-39
-0.30343148 0.28685051 1.7410001 5.1603825e-39
-0.29127207 0.28574511 1.7410001 5.8036023e-39
-0.27358577 0.28242892 1.7410001 5.2511544e-39
-0.26280811 0.28104717 1.7410001 4.7916168e-39
-0.25700477 0.28187621 1.7410001 4.9752878e-39
-0.24374002 0.28463972 1.7410001 5.5259897e-39
-0.23710763 0.28685048 1.7410001 5.5263162e-39
-0.39462668 0.29016668 1.7410001 5.8954462e-39
-0.38633621 0.29348287 1.7410001 6.0798487e-39
-0.37638763 0.2934829 1.7410001 6.1716842e-39
-0.36710235 0.29149315 1.7410001 5.9876545e-39
-0.35649049 0.29016668 1.7410001 6.1716814e-39
-0.34820002 0.29016668 1.7410001 5.2533348e-39
-0.33659336 0.29016668 1.7410001 5.9876783e-39
-0.32498667 0.29016668 1.7410001 5.7128682e-39
-0.31338003 0.29016668 1.7410001 5.711778e-39
-0.38523084 0.30122066 1.7410001 6.2645833e-39
-0.37804574 0.30011526 1.7410001 6.6315749e-39
-0.2931667 0.25798666 1.7590001 4.790556e-39
-0.28869939 0.2585451 1.7590002 4.6990764e-39
-0.26666668 0.25833336 1.7500001 4.7909189e-39
-0.28646576 0.26385003 1.7590001 4.9752878e-39
-0.27506465 0.26558018 1.7575001 4.8830992e-39
-0.26530668 0.26530477 1.7520001 4.8827474e-39
-0.25541669 0.26541668 1.7500001 4.9742284e-39
-0.24833335 0.26500002 1.7500001 4.6994618e-39
-0.38195431 0.27976477 1.7590001 5.7114221e-39
-0.3769286 0.27976477 1.7590001 5.4352009e-39
-0.31326956 0.27808952 1.7590001 5.8025373e-39
-0.30656859 0.2764143 1.7589999 5.3437144e-39
-0.29632965 0.27665418 1.757875 5.160744e-39
-0.28646576 0.27808952 1.7590001 5.343706e-39
-0.27625909 0.27625528 1.758 5.1600322e-39
-0.26558918 0.27475801 1.7511251 4.8841754e-39
-0.25833336 0.27333334 1.7500001 5.250465e-39
-0.24500002 0.27166668 1.7500001 4.8831062e-39
-0.39167005 0.28621861 1.7575001 5.8021716e-39
-0.38380301 0.28586158 1.757875 5.9872943e-39
-0.37426445 0.28613627 1.757 5.8036261e-39
-0.36401781 0.28597149 1.756 6.0794745e-39
-0.35398352 0.28597149 1.756 5.8039765e-39
-0.34394923 0.28597146 1.756 5.8039765e-39
-0.33391491 0.28597149 1.756 5.6210201e-39
-0.32499784 0.28630888 1.7551429 5.8958133e-39
-0.31622672 0.28530979 1.7545 6.3542495e-39
-0.30500004 0.28333339 1.7500002 5.4358932e-39
-0.29661971 0.28437179 1.7530001 5.4373225e-39
-0.28500003 0.2816667 1.7500002 5.5277357e-39
-0.2766667 0.2816667 1.7500001 5.4344667e-39
-0.39166668 0.29666668 1.7500001 5.987646e-39
-0.38700002 0.29433337 1.7500002 5.9880076e-39
-0.30308574 0.25593907 1.7680001 4.6986869e-39
-0.29691178 0.25537783 1.7680001 4.6990792e-39
-0.34181336 0.26772574 1.7680001 4.8831062e-39
-0.31150478 0.26772574 1.7680001 4.7919797e-39
-0.30434856 0.26477903 1.7679999 4.7916126e-39
-0.29578924 0.26548064 1.768 4.975285e-39
-0.28288001 0.26772574 1.7680001 4.974922e-39
-0.2778286 0.26772574 1.7680001 4.9749304e-39
-0.39401144 0.2778286 1.7680001 5.5263134e-39
-0.3855924 0.27698669 1.7680001 5.2504397e-39
-0.37548956 0.2761448 1.768 5.4341261e-39
-0.36482543 0.27558354 1.768 5.7103459e-39
-0.35528386 0.27446097 1.7679999 5.4348324e-39
-0.34518096 0.27446097 1.7679999 5.1593343e-39
-0.33549905 0.27488193 1.7679999 5.4348324e-39
-0.32497528 0.2761448 1.768 5.5270322e-39
-0.31599495 0.27333844 1.768 5.4351995e-39
-0.30476958 0.27109334 1.7680001 5.1603965e-39
-0.29466671 0.2724404 1.768 5.1593189e-39
-0.28523737 0.2724404 1.768 5.1582455e-39
-0.39401144 0.28119621 1.7680001 5.6192307e-39
-0.38896003 0.28119621 1.7680001 5.7114235e-39
-0.37380576 0.28119621 1.7680001 5.8021772e-39
-0.36538669 0.28119621 1.7680001 5.802875e-39
-0.35528383 0.28119621 1.7680001 5.6202985e-39
-0.34518099 0.28119621 1.7680001 5.2526117e-39
-0.33507809 0.28119621 1.7680001 5.6203167e-39
-0.32497528 0.28119621 1.7680001 5.9869398e-39
-0.31824002 0.28119621 1.7680001 6.3542594e-39
-0.30970573 0.2572419 1.7770001 4.6061451e-39
-0.36318499 0.26773471 1.7770001 5.1586056e-39
-0.35370764 0.26739621 1.7770002 5.0664072e-39
-0.34355336 0.26528072 1.7770002 4.6068752e-39
-0.33424526 0.26824242 1.7770001 5.0667786e-39
-0.32324478 0.2690886 1.7770001 5.1585762e-39
-0.31562907 0.26655003 1.7770001 4.6075857e-39
-0.30970573 0.26231906 1.7770001 4.6072283e-39
-0.40109432 0.2758581 1.7770001 5.526312e-39
-0.39347863 0.27501193 1.7770001 5.3429983e-39
-0.3841705 0.27331954 1.7770001 5.2507873e-39
-0.37401623 0.27247339 1.7770002 5.6185216e-39
-0.36724669 0.27416575 1.7770001 5.7103543e-39
-0.35709241 0.2758581 1.7770001 5.5270266e-39
-0.3317067 0.27247337 1.7770001 5.1593427e-39
-0.32493716 0.27247337 1.7770001 5.434824e-39
-0.31467623 0.25514287 1.7860001 4.328482e-39
-0.3827143 0.26704955 1.7860001 4.974213e-39
-0.37506002 0.26619908 1.7860001 4.9735025e-39
-0.36655524 0.26449811 1.7860001 4.9742172e-39
-0.35481867 0.26228687 1.7860001 4.8820342e-39
-0.34529334 0.26024574 1.7860001 4.7905504e-39
-0.33440724 0.26500842 1.7860001 4.9742172e-39
-0.32488191 0.26534861 1.7860001 4.9738514e-39
-0.31694418 0.26364768 1.7860001 4.5146712e-39
-0.40312573 0.27385336 1.7860001 5.3426354e-39
-0.39632195 0.27271941 1.7860001 5.3429871e-39
-0.38611621 0.27045149 1.7860001 5.1589588e-39
-0.37591052 0.27045149 1.7860001 5.2504509e-39
-0.32828382 0.27045146 1.7860001 5.2504481e-39
-0.3709667 0.25813812 1.7950001 4.6994338e-39
-0.36412859 0.25813812 1.7950001 4.6068878e-39
-0.35387146 0.25514647 1.7950001 4.5132446e-39
-0.34404168 0.25514644 1.7950001 4.4206917e-39
-0.33506668 0.2564286 1.7950001 4.6972716e-39
-0.32310003 0.25471908 1.7950001 4.5121642e-39
-0.31968099 0.25471908 1.7950001 4.3281331e-39
-0.40558454 0.26540357 1.7950001 4.8820272e-39
-0.39490005 0.26668572 1.7950001 4.9745647e-39
-0.38549763 0.26583096 1.7950001 4.8820145e-39
-0.37438577 0.26269686 1.7950001 4.8820244e-39
-0.36412859 0.26155716 1.7950001 4.8827502e-39
-0.35045239 0.26155716 1.7950001 4.6065221e-39
-0.34190479 0.26155716 1.7950001 4.8816516e-39
-0.33506668 0.26155716 1.7950001 4.8823789e-39
-0.32651907 0.26155716 1.7950001 5.2493579e-39
-0.31968096 0.26155716 1.7950001 4.7901678e-39
-0.40515718 0.27181432 1.7950001 5.0667645e-39
-0.39831907 0.27181432 1.7950001 5.2507873e-39
-0.36366352 0.24797843 1.8040003 4.3295666e-39
-0.35515487 0.24666941 1.8040001 4.4203189e-39
-0.34533715 0.24740574 1.8040001 4.2366592e-39
-0.33502859 0.24666941 1.8040001 4.1448307e-39
-0.32643813 0.24912383 1.8040001 4.0537084e-39
-0.4106248 0.2577143 1.8040001 4.9731326e-39
-0.40375242 0.25771433 1.8040001 4.8809384e-39
-0.39344382 0.25771433 1.8040001 4.5135908e-39
-0.38485336 0.25599623 1.8040001 4.4217623e-39
-0.37675384 0.25599623 1.8040001 4.3302953e-39
-0.36595434 0.25427812 1.8040001 4.2380871e-39
-0.35564575 0.25256002 1.8040001 4.5128733e-39
-0.34190097 0.25256002 1.8040001 4.328852e-39
-0.33365414 0.25462174 1.8040001 4.6047214e-39
-0.3281562 0.25599623 1.8040003 4.6050773e-39
-0.40203431 0.26286858 1.8040001 4.7898161e-39
-0.39344382 0.26286858 1.8040003 4.6976205e-39
-0.38485336 0.26286858 1.8040001 4.6061465e-39
-0.37969908 0.26286858 1.8040001 4.698352e-39
-0.3628 0.23668383 1.8140001 4.4199798e-39
-0.35416192 0.23668383 1.8140001 4.6040053e-39
-0.38353145 0.24704954 1.8140001 4.4224755e-39
-0.37489337 0.24704954 1.8140001 4.1469915e-39
-0.36383662 0.24290326 1.8140001 4.5114496e-39
-0.35416195 0.24152116 1.8140001 4.4192385e-39
-0.34379622 0.24221221 1.8140001 4.0519092e-39
-0.41405272 0.25280827 1.8140001 4.7887357e-39
-0.40512669 0.25309622 1.8140001 4.5139663e-39
-0.39562482 0.25396001 1.8140001 4.5139607e-39
-0.38353145 0.25050479 1.8140001 4.329931e-39
-0.37575719 0.25136858 1.8140001 3.963668e-39
-0.3717486 0.23798859 1.8240001 4.328859e-39
-0.36480004 0.2345143 1.8240001 4.4207057e-39
-0.35958859 0.2345143 1.8240001 4.4203357e-39
-0.41344002 0.24841145 1.8240001 4.6979904e-39
-0.40475434 0.24841146 1.8240001 4.3306653e-39
-0.39433146 0.24841146 1.8240001 4.69691e-39
-0.3727909 0.24354744 1.8240002 4.6043613e-39
-0.34569144 0.24146287 1.8240001 3.9600751e-39
-0.41517717 0.25188574 1.8240001 4.7891057e-39
-0.40475431 0.25188574 1.8240001 4.3306611e-39
-0.39433146 0.25188574 1.8240001 4.6972688e-39
-0.43468288 0.19726573 1.8330001 3.9611751e-39
-0.42770004 0.19726573 1.8330001 4.0512043e-39
-0.44341144 0.20424859 1.8330001 2.8584149e-39
-0.43328628 0.20285201 1.8330001 4.0537266e-39
-0.42770004 0.20424859 1.8330001 4.6969381e-39
-0.41286147 0.23829003 1.8330001 4.6969198e-39
-0.40442383 0.23799907 1.8330001 4.4228637e-39
-0.39697546 0.23776631 1.8330001 4.5136076e-39
-0.38493001 0.23829003 1.8330001 4.054786e-39
-0.37620145 0.2365443 1.8330001 4.3288646e-39
-0.42071718 0.24614573 1.8330001 4.879886e-39
-0.41373429 0.24440002 1.8330001 4.6972786e-39
-0.40500575 0.24440002 1.8330001 4.3310254e-39
-0.39627716 0.24440002 1.8330001 4.513602e-39
-0.38580292 0.24440002 1.8330001 4.3306344e-39
-0.37882003 0.24265431 1.8330001 4.3302729e-39
-0.42476764 0.19834192 1.8430001 3.7774831e-39
-0.44056478 0.20711811 1.8430001 3.2264925e-39
-0.43705431 0.20711811 1.8430001 3.9626016e-39
-0.42476767 0.20536289 1.8430002 4.4225106e-39
-0.41774669 0.20887335 1.8430001 4.3299324e-39
-0.44290513 0.21472415 1.8430002 4.3288674e-39
-0.43254089 0.21539283 1.8430002 4.5143334e-39
-0.42476767 0.21589431 1.8430002 4.7905602e-39
-0.41774672 0.21589431 1.8430002 4.6990638e-39
-0.42301241 0.22291525 1.8430001 5.0664366e-39
-0.41643029 0.22686456 1.8430002 4.8820328e-39
-0.40495858 0.22742873 1.8430002 4.5139761e-39
-0.39703488 0.22712782 1.8430001 4.6050759e-39
-0.38790765 0.22818097 1.8430001 4.6047158e-39
-0.37211049 0.22993621 1.8430001 4.5128845e-39
-0.42301241 0.23695716 1.8430001 5.1564561e-39
-0.41669354 0.23485088 1.8430001 4.8813027e-39
-0.40633765 0.23432431 1.8430001 4.790556e-39
-0.39422652 0.23485088 1.8430001 4.5128943e-39
-0.3852748 0.23432431 1.8430001 4.4214162e-39
-0.37386572 0.23344669 1.8430002 4.5128943e-39
-0.36684477 0.23344669 1.8430001 4.3292149e-39
-0.42564526 0.24310049 1.8430001 5.0639255e-39
-0.42177811 0.19941811 1.853 3.5001661e-39
-0.41824859 0.19941811 1.853 3.3157791e-39
-0.42177811 0.20471239 1.853 4.0536944e-39
-0.43942574 0.21706572 1.853 4.5143349e-39
-0.41295433 0.21353619 1.853 4.5150257e-39
-0.40589526 0.21706572 1.853 4.882732e-39
-0.4464848 0.22059526 1.853 4.5128985e-39
-0.43589622 0.22236001 1.853 4.6980114e-39
-0.42766067 0.22647779 1.853 4.8823929e-39
-0.41295433 0.22236001 1.853 4.8827558e-39
-0.40501288 0.22147764 1.853 4.9731564e-39
-0.39354193 0.22353652 1.853 4.6969338e-39
-0.3850711 0.2248307 1.853 4.5139663e-39
-0.37824735 0.2264778 1.853 4.5139747e-39
-0.42648417 0.23471336 1.853 4.8816684e-39
-0.39354193 0.23118383 1.853 4.6961729e-39
-0.38471812 0.23118383 1.853 4.4206917e-39
-0.37942383 0.23118383 1.853 4.5132573e-39
-0.42050573 0.20581716 1.863 3.8696647e-39
-0.4169572 0.20404288 1.8630002 3.6834812e-39
-0.40580454 0.21367472 1.8630002 4.6061535e-39
-0.39211717 0.21823716 1.863 4.60472e-39
-0.38679433 0.21823716 1.863 4.4210364e-39
-0.43470004 0.22888288 1.863 4.7905658e-39
-0.39566574 0.22178572 1.863 4.7894924e-39
-0.38324574 0.22178572 1.863 4.5143208e-39
-0.37792289 0.2253343 1.863 4.5153998e-39
-0.43233436 0.23598002 1.8630002 4.9742214e-39
-0.41384387 0.20692191 1.8730001 3.8689542e-39
-0.4058167 0.20781381 1.8730001 4.0526392e-39
-0.39778954 0.20870572 1.8730001 4.0501645e-39
-0.40135717 0.21584098 1.8730001 4.6050787e-39
-0.3954111 0.21524636 1.8730001 4.3277842e-39
