# .PCD v0.7 - Point Cloud Data file format
VERSION 0.7
FIELDS x y z rgb
SIZE 4 4 4 4
TYPE F F F F
COUNT 1 1 1 1
WIDTH 606
HEIGHT 1
VIEWPOINT 0 0 0 1 0 0 0
POINTS 606
DATA ascii
-0.30010957 0.055534288 0.58900011 3.4094418e-39
-0.29390493 0.055941138 0.58868295 4.7934721e-39
-0.28645101 0.057271261 0.58794874 6.3622397e-39
-0.29221722 0.063725449 0.58881819 3.1350101e-39
-0.28461254 0.064856932 0.58657998 5.0707765e-39
-0.27756462 0.066992886 0.58647382 6.0845669e-39
-0.2911343 0.070119053 0.58900005 2.9481064e-39
-0.28421205 0.074367866 0.58709806 3.1332263e-39
-0.27490476 0.075116657 0.58667076 4.7005576e-39
-0.26953766 0.078252859 0.58900005 4.5143419e-39
-0.28151858 0.081315413 0.58883333 2.4889345e-39
-0.27445143 0.084417261 0.58818191 3.3179721e-39
-0.26722813 0.084959336 0.5882954 3.9633401e-39
-0.27318382 0.090313338 0.58900011 2.3052663e-39
-0.26869625 0.090313338 0.58900011 3.4105363e-39
-0.30479547 0.045930162 0.59632021 4.9785878e-39
-0.29504192 0.046243127 0.59534329 5.9916538e-39
-0.28562409 0.047871649 0.59780008 7.0979957e-39
-0.27782193 0.049631432 0.59900004 5.0682373e-39
-0.30408424 0.0519545 0.59444451 3.5934842e-39
-0.29556558 0.052634701 0.59156764 5.3473479e-39
-0.28407559 0.053810235 0.59408826 6.1753318e-39
-0.27537376 0.05572721 0.59645683 6.452262e-39
-0.26782104 0.058052678 0.59820002 6.6370176e-39
-0.30149668 0.067886673 0.59900004 3.5002067e-39
-0.29582047 0.064842686 0.59088892 3.3168833e-39
-0.28075635 0.060992859 0.59116673 4.795277e-39
-0.27404779 0.064338073 0.59289461 7.3756686e-39
-0.26654842 0.066000238 0.59705806 7.4671454e-39
-0.30064097 0.070168577 0.59900004 3.6845896e-39
-0.29377404 0.07363566 0.59255558 3.2254079e-39
-0.28821418 0.077860147 0.59057152 3.5920408e-39
-0.27112252 0.071973741 0.59041679 5.5299553e-39
-0.2653828 0.074880607 0.59464598 5.9923712e-39
-0.25894895 0.075238787 0.59812498 5.7157717e-39
-0.28439653 0.085155472 0.59154981 3.4083572e-39
-0.27883241 0.088693976 0.59066671 2.9474015e-39
-0.26333502 0.084752046 0.59460622 4.3332072e-39
-0.25926805 0.084180489 0.59795457 4.9782165e-39
-0.28167683 0.094545148 0.59500003 3.3168917e-39
-0.27446169 0.094778888 0.5920769 2.7637165e-39
-0.26426515 0.094825752 0.59363818 3.5942016e-39
-0.25956669 0.095459692 0.59900004 5.1608057e-39
-0.27309626 0.10261525 0.59669572 3.0392286e-39
-0.26455665 0.10432148 0.59636116 3.4079971e-39
-0.25958014 0.10315012 0.59837502 3.8704172e-39
-0.26481506 0.1103301 0.59900004 3.5934618e-39
-0.27073622 0.029191431 0.60100001 3.3997266e-39
-0.2680943 0.029215716 0.60150003 1.8385106e-39
-0.24384983 0.02746495 0.60786122 8.7312399e-39
-0.23799334 0.024553336 0.60900003 9.2836822e-39
-0.31180447 0.039287306 0.60666668 5.6221412e-39
-0.30416381 0.038298022 0.60676003 4.4257616e-39
-0.29433548 0.036457613 0.6063751 3.961908e-39
-0.28545341 0.035875238 0.60735285 2.3020251e-39
-0.27438775 0.035844669 0.60565233 1.9343146e-39
-0.26760858 0.034831166 0.60713631 1.8414099e-39
-0.24412185 0.032709118 0.60833329 7.9018436e-39
-0.23954001 0.030740002 0.60900003 9.5591957e-39
-0.32074001 0.041180003 0.60900003 3.0467802e-39
-0.31331474 0.0421036 0.60288888 4.5183215e-39
-0.30563495 0.041529972 0.60223526 5.2529999e-39
-0.29376274 0.041869253 0.60087508 6.6366574e-39
-0.28447768 0.043456413 0.60179251 4.9753382e-39
-0.27489579 0.04534224 0.60327792 3.5005655e-39
-0.26535878 0.045101497 0.60680777 3.5931212e-39
-0.25809005 0.04700857 0.6087501 4.793091e-39
-0.2725085 0.051488232 0.60009086 4.7923763e-39
-0.26445597 0.054117024 0.6029278 5.8068926e-39
-0.25541273 0.055219084 0.60679269 6.3604265e-39
-0.24998002 0.05684001 0.60900003 6.4511802e-39
-0.30498514 0.068584889 0.60137498 3.1335724e-39
-0.26210251 0.063545585 0.60052788 7.1894753e-39
-0.25483143 0.065001622 0.60403109 6.0834893e-39
-0.24892572 0.066991791 0.60837507 4.9778508e-39
-0.30200595 0.073357277 0.6002 3.4094362e-39
-0.25434887 0.075001776 0.60256958 5.4373898e-39
-0.24743487 0.075062811 0.6079464 4.9764172e-39
-0.25424674 0.085136116 0.60341579 5.3455445e-39
-0.24790451 0.083647512 0.60862076 5.3455487e-39
-0.28366524 0.098939531 0.60049999 3.9622359e-39
-0.26045716 0.094514288 0.60000002 5.2530125e-39
-0.25499526 0.094687432 0.60389787 5.6217754e-39
-0.24957976 0.093790077 0.6084286 5.7139739e-39
-0.28366524 0.10008334 0.60049999 3.8700416e-39
-0.27483636 0.10759616 0.60138094 3.3168819e-39
-0.26052544 0.10882255 0.60033333 4.3306597e-39
-0.25680152 0.10472854 0.60495722 5.437024e-39
-0.27370888 0.11273576 0.60453337 3.6831449e-39
-0.26447085 0.11482024 0.60414296 4.053721e-39
-0.25844741 0.11280426 0.60687512 5.0678926e-39
-0.26660669 0.12006001 0.60900009 4.2388186e-39
-0.23197415 0.01920048 0.61716676 8.9152626e-39
-0.2282021 0.017473228 0.61844444 8.6390162e-39
-0.30867144 0.02987143 0.61500001 3.6856784e-39
-0.25515983 0.02808849 0.61563647 3.5823214e-39
-0.23478936 0.025460817 0.61390471 9.4669973e-39
-0.22902027 0.024814207 0.6179167 9.4659113e-39
-0.31140321 0.03522376 0.61273682 3.8714962e-39
-0.30550379 0.033549082 0.61310267 3.9636974e-39
-0.2974515 0.032651436 0.61138469 2.8555604e-39
-0.28448191 0.032268386 0.61160004 1.5651747e-39
-0.26329625 0.035640467 0.61402321 2.2105455e-39
-0.25448054 0.035376497 0.61460006 3.4944418e-39
-0.24417219 0.03692558 0.61197066 7.5348519e-39
-0.23542233 0.035001881 0.61590129 9.8346924e-39
-0.2289543 0.030017145 0.61800003 9.7417667e-39
-0.32486477 0.042090796 0.61288887 3.5027277e-39
-0.26238295 0.040916108 0.61136371 3.2236199e-39
-0.25417277 0.044733047 0.61361969 4.5161537e-39
-0.24448305 0.045178294 0.61512333 7.1729091e-39
-0.2368807 0.043755412 0.61766672 1.0018373e-38
-0.25150794 0.051595975 0.61177778 6.3597048e-39
-0.24530062 0.054965429 0.61461353 6.1713563e-39
-0.2394646 0.051052768 0.61900002 9.7457295e-39
-0.25080097 0.062845714 0.611 5.3477179e-39
-0.24451922 0.064687796 0.61313415 4.9764214e-39
-0.23968701 0.067784764 0.61533338 4.6086941e-39
-0.24264246 0.074956343 0.61302054 4.8849292e-39
-0.23787083 0.076211959 0.6173889 5.0685932e-39
-0.243617 0.085551381 0.61382848 5.5292197e-39
-0.23819029 0.083129138 0.61860007 5.4380918e-39
-0.25130886 0.099076472 0.61142862 5.8054436e-39
-0.24554759 0.094696067 0.61484522 5.6217768e-39
-0.2394646 0.091140382 0.61900002 5.2555222e-39
-0.25231799 0.10563124 0.61334789 5.9898377e-39
-0.24766053 0.10366907 0.61649996 5.7150472e-39
-0.27291334 0.11812668 0.611 3.3179371e-39
-0.26069337 0.11929049 0.611 4.7920344e-39
-0.25567901 0.11477137 0.61515111 6.6344868e-39
-0.27204055 0.12428828 0.61417401 4.2366788e-39
-0.26452264 0.12495697 0.61430359 5.34482e-39
-0.25819314 0.12426484 0.61664718 5.0685946e-39
-0.2701543 0.13007429 0.61800003 8.2925354e-39
-0.26635596 0.13023216 0.61874998 7.1890661e-39
-0.25849777 0.13184443 0.61827278 5.8057981e-39
-0.22372384 0.016447024 0.62325501 8.6368681e-39
-0.21933985 0.017085714 0.62720007 8.636854e-39
-0.26237702 0.028302964 0.6234445 1.8377931e-39
-0.22441632 0.024986815 0.62501395 9.4637589e-39
-0.21985051 0.024560954 0.62900007 9.646711e-39
-0.26164028 0.033074088 0.62160867 1.8413847e-39
-0.25709766 0.036734164 0.6212272 2.7594005e-39
-0.23107545 0.037013944 0.62227279 1.0017989e-38
-0.22659428 0.034325 0.62551481 9.9247328e-39
-0.25319368 0.041573972 0.62066668 4.1380302e-39
-0.23280443 0.046077903 0.62267447 1.0293866e-38
-0.22787099 0.044552565 0.62690479 1.0475768e-38
-0.24106203 0.057096727 0.62088889 7.7260955e-39
-0.2350515 0.055043999 0.62383348 1.0571546e-38
-0.22876851 0.054494578 0.62817395 1.1212246e-38
-0.24098411 0.063232258 0.62214291 5.1564925e-39
-0.23512635 0.065036647 0.62562358 9.1929327e-39
-0.22899535 0.063688055 0.62888891 1.0936012e-38
-0.23606756 0.073647112 0.62711549 6.8999068e-39
-0.22943525 0.070088573 0.62900001 1.0937113e-38
-0.2354008 0.086213119 0.6230185 5.5295784e-39
-0.24113485 0.097888581 0.62154549 5.8050905e-39
-0.2362832 0.094542518 0.62536663 5.6210566e-39
-0.22953334 0.092409529 0.62600005 5.1575182e-39
-0.24400823 0.10506751 0.62416089 6.0827452e-39
-0.23869303 0.10118508 0.62866664 6.0813214e-39
-0.25273415 0.11689092 0.62340623 5.1611644e-39
-0.24812917 0.11320166 0.62580007 5.8061611e-39
-0.25551647 0.12210266 0.62540913 3.2236185e-39
-0.27050573 0.13555144 0.62700003 8.0170541e-39
-0.2638334 0.13289759 0.62230772 5.9908816e-39
-0.21877748 0.019451749 0.63166666 7.2585943e-39
-0.22029622 0.026364574 0.63200003 9.6467124e-39
-0.21886449 0.025834965 0.63411766 9.3726198e-39
-0.22203752 0.036111999 0.63193351 1.0015133e-38
-0.21808141 0.034780029 0.6356945 1.0106972e-38
-0.2234215 0.045074027 0.63290745 1.0844191e-38
-0.21901906 0.044898774 0.63704175 1.1304433e-38
-0.22399352 0.055176184 0.63387144 1.1301918e-38
-0.21922952 0.054607425 0.63821048 1.1393393e-38
-0.23016478 0.064902857 0.63100004 1.1213307e-38
-0.2246208 0.065344788 0.6348334 1.1211165e-38
-0.21969429 0.064508572 0.639 1.1119317e-38
-0.23244452 0.076597109 0.63120854 9.468435e-39
-0.22619605 0.074576676 0.63549995 1.0847408e-38
-0.23308155 0.084628358 0.63486367 7.3583724e-39
-0.22845851 0.082843244 0.63630003 1.0573706e-38
-0.23429692 0.096754976 0.63499999 5.2508041e-39
-0.24165271 0.1079281 0.63250005 5.8061611e-39
-0.23638946 0.10415883 0.63542014 4.9760375e-39
-0.25052857 0.11826573 0.63900006 4.6076487e-39
-0.24514262 0.11299361 0.63599998 5.5299259e-39
-0.26078671 0.12767175 0.63533342 3.4994753e-39
-0.2567057 0.12656093 0.63777274 2.7644452e-39
-0.22180116 0.0087634297 0.648 1.4733378e-39
-0.21908572 0.0092571434 0.648 2.1187184e-39
-0.22240192 0.014564794 0.64450026 3.4026007e-39
-0.21605299 0.015731074 0.64660788 4.7938182e-39
-0.20727931 0.01912405 0.64775002 7.1909116e-39
-0.22096412 0.022152657 0.64371431 6.6157585e-39
-0.21472237 0.024909168 0.64302635 5.4348758e-39
-0.20673302 0.025125261 0.64677083 6.9136087e-39
-0.21314761 0.035286184 0.6415537 7.262581e-39
-0.20506293 0.035135437 0.64582282 4.9778648e-39
-0.19933715 0.038880002 0.648 4.6094354e-39
-0.21413313 0.045275047 0.64242184 1.1119666e-38
-0.20466055 0.045419861 0.64554811 4.5096699e-39
-0.19933715 0.045051433 0.648 4.9760403e-39
-0.21406209 0.055243399 0.64246255 1.1301553e-38
-0.20588943 0.053707696 0.64636582 7.4458751e-39
-0.21472168 0.064823829 0.6436103 1.1028559e-38
-0.20921144 0.061097145 0.648 1.0936713e-38
-0.22162712 0.076650657 0.6408149 1.0847409e-38
-0.2168446 0.074240319 0.64487511 1.0572255e-38
-0.23100954 0.089600004 0.64000005 9.1979311e-39
-0.22463641 0.085491665 0.64340311 9.746461e-39
-0.21888418 0.082882583 0.64684623 9.6535507e-39
-0.23263849 0.09470135 0.64223546 6.346733e-39
-0.22757225 0.09261705 0.64536846 7.7235452e-39
-0.23390085 0.10655557 0.64080006 3.6860217e-39
-0.24447843 0.11629255 0.64050001 4.4217917e-39
-0.23982358 0.11350501 0.64075005 4.4217917e-39
-0.25249243 0.12244338 0.64136362 3.4083797e-39
-0.24886549 0.12061596 0.64125001 3.959736e-39
-0.2117331 -0.0012530952 0.65775001 2.2091162e-39
-0.20993334 -0.0006266667 0.65800005 3.5916807e-39
-0.22100002 0.0080476198 0.65000004 1.5662509e-39
-0.21370639 0.0061527747 0.65232623 3.5931296e-39
-0.20555341 0.0055113318 0.65576679 7.6515324e-39
-0.19805811 0.0079449834 0.6573078 9.0359116e-39
-0.21287265 0.012512649 0.65043992 5.8998099e-39
-0.20476317 0.014666827 0.65171254 7.5600585e-39
-0.19576308 0.015449992 0.65566659 7.3763819e-39
-0.18759064 0.018163653 0.65766668 6.6370134e-39
-0.20214018 0.023859672 0.65044814 6.6381064e-39
-0.19501698 0.02499995 0.65367568 6.176408e-39
-0.18723831 0.025101081 0.6571843 5.7143564e-39
-0.20180953 0.030333335 0.65000004 5.624316e-39
-0.19503364 0.034742739 0.65245593 4.8856537e-39
-0.18616727 0.035048604 0.65715396 4.6087095e-39
-0.19509722 0.044748005 0.6526711 4.5168642e-39
-0.18776336 0.044067077 0.65764284 4.3324729e-39
-0.20397855 0.057217732 0.65084618 5.5169695e-39
-0.19553332 0.054532327 0.6542055 4.6076235e-39
-0.18988001 0.052640006 0.65800005 4.6069004e-39
-0.21079373 0.068281338 0.65060008 1.057155e-38
-0.20516443 0.064803965 0.65307039 7.4455233e-39
-0.19819258 0.063853301 0.65589297 4.7923749e-39
-0.21260616 0.075725392 0.6525526 1.00216e-38
-0.20733999 0.073250644 0.65510011 9.0113861e-39
-0.22163089 0.089321531 0.6504001 7.5394902e-39
-0.21560894 0.083900817 0.65428883 8.1812765e-39
-0.23245323 0.098870352 0.65087503 2.2973406e-39
-0.22463341 0.095160633 0.65306687 2.2976923e-39
-0.21996002 0.09086667 0.65800005 1.5615706e-39
-0.23329756 0.10357261 0.65468973 1.0112891e-39
-0.22777745 0.10161153 0.65366673 9.1982072e-40
-0.24282371 0.11703262 0.657125 4.2395682e-39
-0.23857346 0.11537941 0.65662503 4.8845845e-39
-0.24502668 0.12094668 0.65800005 4.5150803e-39
-0.20103526 -0.010815239 0.66800004 7.6486542e-39
-0.19942573 -0.01083143 0.66900003 9.1245143e-39
-0.18555017 -0.011114605 0.66900009 1.0141526e-38
-0.21109685 -0.002725397 0.6603334 2.4874841e-39
-0.20428808 -0.0041216775 0.66247982 6.7284985e-39
-0.19543824 -0.0043339133 0.66515261 1.217021e-38
-0.18510647 -0.0049837786 0.66680652 1.1524468e-38
-0.17676029 -0.0038484712 0.66736829 5.5288735e-39
-0.20177145 0.0021142859 0.66000003 9.5901476e-39
-0.19437158 0.0043830709 0.66108602 9.8656779e-39
-0.18513165 0.0050500985 0.66345471 8.6660585e-39
-0.17524426 0.0052858396 0.66639143 6.1760394e-39
-0.16909839 0.0071808174 0.66785729 2.9517147e-39
-0.19163357 0.012468017 0.66008329 7.4675041e-39
-0.18466617 0.014594352 0.66112715 6.8217746e-39
-0.17525983 0.015184898 0.66436124 6.0842081e-39
-0.16743422 0.01521086 0.6677838 3.3197657e-39
-0.1825961 0.025080699 0.6603235 5.2540873e-39
-0.17497535 0.025451243 0.66456592 5.0689716e-39
-0.16804615 0.024490854 0.66826081 4.699459e-39
-0.18158357 0.035235953 0.66065001 4.4253818e-39
-0.17565703 0.035037253 0.6653235 4.4239553e-39
-0.16884287 0.031220002 0.66900003 4.3317569e-39
-0.18360057 0.045991208 0.66110867 4.3314023e-39
-0.17739365 0.044383075 0.66667515 4.0569678e-39
-0.1911806 0.058693219 0.66087502 4.607978e-39
-0.18529369 0.054839838 0.66372305 4.6076193e-39
-0.17896934 0.050752964 0.66780007 4.4232308e-39
-0.19381286 0.065571971 0.66213727 5.1607959e-39
-0.18688941 0.064372204 0.6664874 5.5295826e-39
-0.21057144 0.079828575 0.66000003 7.9994202e-39
-0.20419149 0.076037228 0.66304559 3.6791904e-39
-0.19606577 0.07394655 0.66553205 5.7143298e-39
-0.18880668 0.071147628 0.66900003 5.8997832e-39
-0.21348172 0.087129809 0.66292858 2.3895306e-39
-0.20572571 0.082391843 0.66502869 2.39169e-39
-0.19900095 0.081341915 0.66900003 5.1593609e-39
-0.22123004 0.095548891 0.6620667 8.2832013e-40
-0.21712849 0.092778035 0.66600007 8.279628e-40
-0.23634288 0.10811429 0.66000003 8.2796701e-40
-0.22754288 0.10245715 0.66000003 1.1031134e-39
-0.24137145 0.11880001 0.66000003 4.5157964e-39
-0.23782441 0.11529631 0.66062504 3.7767908e-39
-0.25397745 0.12710041 0.66316003 4.4221504e-39
-0.24458088 0.12537308 0.66117722 4.6076277e-39
-0.23795533 0.12480386 0.66366667 4.7923833e-39
-0.26188627 0.13435084 0.66654545 3.5009158e-39
-0.25485247 0.13503118 0.66550928 4.5150593e-39
-0.2447373 0.1344862 0.66594458 4.7930867e-39
-0.23817064 0.13260289 0.66715389 5.3448368e-39
-0.25422001 0.14080858 0.66900003 4.607985e-39
-0.20022479 -0.022533335 0.67600006 6.0842067e-39
-0.19790016 -0.022194019 0.67685723 7.0057819e-39
-0.20064637 -0.014931748 0.67166674 7.0980083e-39
-0.19517747 -0.015485568 0.67251682 1.0417403e-38
-0.18663079 -0.014437563 0.67063999 7.7400987e-39
-0.19334288 -0.0091460319 0.67000002 1.3276908e-38
-0.18185715 -0.0095714293 0.67000002 1.1142929e-39
-0.17930478 -0.0095714293 0.67000002 4.5161677e-39
-0.16909525 0.0070190481 0.67000002 4.4221686e-39
-0.16375189 0.017529747 0.67023081 2.8594995e-39
-0.16335101 0.025395472 0.67031699 2.8569925e-39
-0.15883866 0.02600245 0.67057151 2.9488322e-39
-0.17084506 0.036942452 0.67042857 4.5154321e-39
-0.16479692 0.035122551 0.67348427 3.6867364e-39
-0.15903382 0.034410238 0.67675 2.3974409e-39
-0.17212279 0.045483097 0.67212188 4.3317555e-39
-0.16572477 0.043595698 0.67675006 4.5154124e-39
-0.18105952 0.057269052 0.67000002 5.1604371e-39
-0.17501383 0.055048399 0.67405963 5.3448256e-39
-0.16982287 0.051657148 0.67800003 5.2536823e-39
-0.18296821 0.065708749 0.6729697 6.2660574e-39
-0.17798716 0.062670536 0.67605555 6.3586034e-39
-0.19314946 0.076938652 0.67080951 5.1607959e-39
-0.18708639 0.073671184 0.67540014 5.6221328e-39
-0.21068802 0.088906676 0.67160004 6.4501348e-40
-0.2039893 0.08595299 0.67224997 2.2112672e-39
-0.19718082 0.083163105 0.67374998 4.3306723e-39
-0.2128026 0.093403004 0.67042857 9.208815e-40
-0.20896858 0.09010572 0.671 5.5316958e-40
-0.26098096 0.12825716 0.67000002 3.5934758e-39
-0.2736063 0.13905658 0.67660004 3.3175965e-39
-0.26682684 0.1378845 0.67071426 3.2246961e-39
-0.24472834 0.13964996 0.67042857 5.1615035e-39
-0.23618846 0.13581727 0.67471063 5.3451801e-39
-0.27267995 0.14387757 0.67706257 3.6852987e-39
-0.26472694 0.14499696 0.6732682 4.0533665e-39
-0.25508612 0.14532195 0.67191648 4.7927252e-39
-0.24498227 0.14495313 0.67393333 5.3455347e-39
-0.23660778 0.14389671 0.67705268 5.8054338e-39
-0.26450065 0.15164383 0.6775555 4.4214414e-39
-0.25431329 0.1523944 0.6773333 5.25263e-39
-0.24578071 0.15169886 0.67752391 5.4373884e-39
-0.23956002 0.15045144 0.67800003 5.8047107e-39
-0.15671068 0.037242483 0.68126684 3.1342983e-39
-0.16338277 0.047712289 0.68160009 4.423214e-39
-0.15812393 0.043953687 0.68279165 3.0413754e-39
-0.17109081 0.058617145 0.68133342 6.6348357e-39
-0.16610716 0.054325353 0.68527442 5.7143214e-39
-0.18108238 0.069124289 0.68150008 7.2791402e-39
-0.17471123 0.064677671 0.68490022 6.1749282e-39
-0.16939549 0.061154529 0.68675005 7.0039686e-39
-0.19142668 0.079053335 0.68600005 4.5143517e-39
-0.18363294 0.074339136 0.68175006 5.898721e-39
-0.17883399 0.071053341 0.6886667 6.0812948e-39
-0.20469196 0.089028269 0.68233341 2.5800497e-39
-0.19492738 0.085276887 0.68637502 4.5154195e-39
-0.18826288 0.080777153 0.68400002 4.0573238e-39
-0.21031502 0.093912154 0.68475002 9.2087309e-40
-0.20440722 0.094111174 0.68460786 2.5793224e-39
-0.19896275 0.094240688 0.68785733 4.6076291e-39
-0.20306994 0.10091568 0.6885556 3.1332193e-39
-0.19955716 0.10010572 0.68700004 4.7005422e-39
-0.24251828 0.12448156 0.68742865 6.2685854e-39
-0.23502336 0.12553196 0.68574196 8.4812917e-39
-0.22694503 0.12695704 0.68727595 8.2057768e-39
-0.2778286 0.13859048 0.68000001 3.5927387e-39
-0.2330762 0.13378803 0.68124253 6.1763911e-39
-0.22527152 0.13502593 0.68450618 5.7143396e-39
-0.2193466 0.13559285 0.68900013 5.990188e-39
-0.28194776 0.1471035 0.68511111 4.8852642e-39
-0.27708364 0.14600804 0.68168426 4.147353e-39
-0.23251301 0.1455422 0.68114299 5.9908985e-39
-0.22587289 0.14477956 0.68511128 6.0827452e-39
-0.28231969 0.15106446 0.68566674 5.4373744e-39
-0.27419975 0.15435193 0.68420702 4.5146992e-39
-0.2648274 0.15673196 0.68237507 4.6994478e-39
-0.25520322 0.15726428 0.68103862 5.4370198e-39
-0.24437387 0.15665241 0.68205261 5.7143284e-39
-0.2351454 0.15437388 0.68467921 6.081676e-39
-0.22777872 0.15171655 0.68745458 6.2664218e-39
-0.2715967 0.16086143 0.68800002 4.8831188e-39
-0.26498476 0.16348489 0.68731272 5.0685848e-39
-0.25485384 0.1635917 0.68477803 5.8058023e-39
-0.24540612 0.1628397 0.68593341 6.266056e-39
-0.23838955 0.16089302 0.68766665 6.0823906e-39
-0.16285205 0.057226062 0.69064713 3.5023605e-39
-0.15892096 0.054262299 0.69086677 4.0551812e-39
-0.17246017 0.067799374 0.69116676 3.1317774e-39
-0.16625346 0.063692689 0.6948126 3.2232443e-39
-0.15951906 0.060233336 0.69500005 3.8650236e-39
-0.18071429 0.07425715 0.69000006 5.9887685e-39
-0.17528245 0.072489709 0.69104773 4.3310184e-39
-0.19204025 0.087295003 0.69174999 4.7916476e-39
-0.21135239 0.099071912 0.69350004 1.5651789e-39
-0.2083143 0.099228576 0.69000006 2.3931361e-39
-0.19515121 0.095032014 0.6920684 4.7005352e-39
-0.21219844 0.10200604 0.69700003 2.7644424e-39
-0.2047402 0.10575832 0.69346881 3.5005655e-39
-0.19669506 0.1048978 0.69373822 5.1607973e-39
-0.24352705 0.11635743 0.69352943 1.6562998e-39
-0.23541027 0.1157486 0.69496465 3.8693578e-39
-0.22454964 0.11574034 0.69551885 6.9132415e-39
-0.21691105 0.11674764 0.69676483 8.3894478e-39
-0.20292106 0.11277026 0.69723535 4.9742438e-39
-0.19782154 0.1127842 0.69686675 5.1608015e-39
-0.24484113 0.1204947 0.6902858 3.6813918e-39
-0.23502775 0.12053744 0.69010007 7.3756616e-39
-0.22393182 0.1237472 0.69097632 8.5738461e-39
-0.21489489 0.12466654 0.69328392 6.7292118e-39
-0.20725591 0.12599954 0.69705719 5.2540719e-39
-0.22080001 0.13077144 0.69000006 5.5278071e-39
-0.21423389 0.13486281 0.69201732 5.7136095e-39
-0.20791464 0.1333075 0.69637507 5.7132494e-39
-0.22140875 0.14646086 0.69105887 6.1731457e-39
-0.2155094 0.14430936 0.69480795 5.7136095e-39
-0.20940001 0.14026476 0.69800001 5.8058065e-39
-0.27807266 0.15875739 0.69025004 5.2529481e-39
-0.23186657 0.15860032 0.69099998 6.4493697e-39
-0.22411142 0.15515304 0.69359195 6.266419e-39
-0.21882319 0.15171495 0.69766665 6.1727898e-39
-0.2752142 0.16574214 0.69443989 5.5277735e-39
-0.26500112 0.16829525 0.6914286 5.2544096e-39
-0.25442564 0.16869628 0.69030005 6.174945e-39
-0.24408972 0.16772187 0.69129175 6.8170718e-39
-0.23500519 0.16548893 0.69415116 6.5411982e-39
-0.2278703 0.16314709 0.69666672 6.1760184e-39
-0.27210057 0.17168833 0.69757146 5.6203321e-39
-0.26476124 0.17324695 0.69631994 5.8979812e-39
-0.2547839 0.17447487 0.69478583 6.5433604e-39
-0.24553151 0.17370605 0.69596881 6.9110695e-39
-0.23737778 0.17149505 0.69644445 6.6348399e-39
-0.16533335 0.064666674 0.70000005 2.578228e-39
-0.19161943 0.08619234 0.70375007 4.5165097e-39
-0.18908711 0.085330695 0.70544446 4.886367e-39
-0.19196677 0.095592394 0.70191681 4.7923749e-39
-0.1889943 0.095330134 0.70515805 5.1611532e-39
-0.23441631 0.10696984 0.70325005 1.1049014e-39
-0.22499736 0.10645946 0.70504457 1.6580836e-39
-0.21567675 0.10573625 0.70281821 3.1328592e-39
-0.21000001 0.10733334 0.70000005 4.6194575e-39
-0.19229537 0.10540671 0.70290321 5.2529901e-39
-0.18878523 0.10385595 0.70637506 5.3462661e-39
-0.24101049 0.11015715 0.70100003 1.2871473e-39
-0.23403737 0.11122955 0.70122224 1.5641013e-39
-0.22538142 0.11076647 0.70030767 3.4076608e-39
-0.21339823 0.11349428 0.70078963 6.5437443e-39
-0.20569469 0.11722564 0.70109391 6.5451695e-39
-0.1940504 0.11527023 0.70412773 5.5292155e-39
-0.1894743 0.11125715 0.708 5.3466207e-39
-0.20288676 0.12424123 0.70145947 5.3451913e-39
-0.19613211 0.12453771 0.70492512 5.4370226e-39
-0.20361347 0.13573669 0.70420414 5.7128907e-39
-0.19781168 0.13381262 0.70737505 5.5295798e-39
-0.21162838 0.14769474 0.70269233 5.6203391e-39
-0.20658645 0.14373988 0.70535153 5.7136025e-39
-0.1989143 0.14160001 0.708 5.8050807e-39
-0.22210573 0.15896478 0.70033336 6.0837989e-39
-0.21528003 0.15486872 0.70393753 5.9898279e-39
-0.20910421 0.1514021 0.70780003 5.8043786e-39
-0.27933335 0.16866668 0.70000005 6.5390388e-39
-0.22374205 0.1655927 0.70344687 5.9909097e-39
-0.21806139 0.16296053 0.70668751 5.8976336e-39
-0.28129831 0.17378248 0.70560002 5.9891062e-39
-0.27512652 0.17589909 0.70317394 6.0813004e-39
-0.26623398 0.1779578 0.70100003 6.0823864e-39
-0.25342596 0.1793974 0.70025003 6.7284775e-39
-0.2438747 0.17798388 0.70125008 7.0958279e-39
-0.23457153 0.1754808 0.70336372 6.7266768e-39
-0.2265797 0.17320256 0.70653349 6.5419297e-39
-0.27058384 0.18106321 0.70500004 6.0831067e-39
-0.26404414 0.18313029 0.70580971 6.5437149e-39
-0.25475138 0.18470673 0.70508128 7.0969027e-39
-0.24532798 0.18324609 0.705639 7.2812926e-39
-0.23611334 0.18217523 0.70700008 7.0046987e-39
-0.18635753 0.087890863 0.71416664 6.0838214e-39
-0.18502951 0.095041208 0.71302009 6.3600607e-39
-0.17994763 0.097103819 0.71300006 7.5603962e-39
-0.23058097 0.10345715 0.71000004 9.2160317e-40
-0.22510616 0.10237664 0.71018189 1.0137848e-39
-0.18647262 0.10481962 0.71451724 5.9912754e-39
-0.19064717 0.11718848 0.71290004 5.439168e-39
-0.18818998 0.1143214 0.71652174 5.8065184e-39
-0.19190249 0.12568071 0.71306902 5.7143172e-39
-0.18961821 0.12465037 0.71812505 6.0816606e-39
-0.19417116 0.13517492 0.71392673 5.7139584e-39
-0.20282868 0.14691384 0.7125001 5.5295896e-39
-0.19770253 0.14380425 0.71645832 5.8983595e-39
-0.21185534 0.1577083 0.71070004 5.4366443e-39
-0.20578326 0.15460078 0.71485114 5.7136081e-39
-0.21424431 0.16577901 0.71339136 5.9891076e-39
-0.20788634 0.16291596 0.71693337 5.6221145e-39
-0.22379614 0.17691378 0.71192318 6.4511718e-39
-0.21720675 0.17392527 0.71581244 6.082392e-39
-0.2710667 0.18682604 0.71333337 6.8177893e-39
-0.26688793 0.18767153 0.71138465 6.8202892e-39
-0.24352548 0.18796004 0.71028584 7.4663957e-39
-0.23381297 0.18605044 0.71287888 7.2809338e-39
-0.22579481 0.18330853 0.7161516 6.5433688e-39
-0.21980858 0.18214667 0.71900004 5.9912684e-39
-0.26432112 0.19298357 0.71572214 7.0039756e-39
-0.25462502 0.19308332 0.71442312 7.4653223e-39
-0.24576308 0.19237588 0.71447629 7.834102e-39
-0.23700809 0.19124559 0.71716678 7.3738511e-39
-0.18330289 0.10660252 0.72388899 7.2827373e-39
-0.18453054 0.11436242 0.72426665 6.9125114e-39
-0.18731292 0.1241578 0.72367853 6.1753023e-39
-0.19128537 0.13665152 0.72269237 5.8983553e-39
-0.1889497 0.1336316 0.72611761 6.0827578e-39
-0.19344683 0.14548093 0.72416669 5.898714e-39
-0.18954001 0.14094001 0.72900003 6.2671518e-39
-0.20168792 0.15679939 0.72146678 6.5433646e-39
-0.19725657 0.15389468 0.72482759 5.8990728e-39
-0.21051429 0.16937144 0.72000003 5.1604399e-39
-0.20452949 0.16527681 0.7247805 5.4380974e-39
-0.19878776 0.16194288 0.7280001 5.6235509e-39
-0.21266894 0.17611377 0.72268754 5.8061583e-39
-0.20775068 0.17335087 0.72690004 5.8047219e-39
-0.23177144 0.18994287 0.72000003 7.3724204e-39
-0.22330962 0.18788056 0.72289485 6.7266754e-39
-0.21727711 0.18333873 0.72547829 6.35753e-39
-0.26265255 0.19789824 0.72114295 7.279845e-39
-0.25570312 0.19805016 0.72066677 7.5567976e-39
-0.2447391 0.19760971 0.72295469 7.8344593e-39
-0.23489548 0.19587104 0.72461545 7.4664013e-39
-0.22613631 0.19329773 0.72665399 7.0969041e-39
-0.26256183 0.20110723 0.72233343 7.0954706e-39
-0.2554937 0.20299532 0.72543752 7.5578752e-39
-0.24515367 0.20322876 0.72766662 7.6511555e-39
-0.23613913 0.20174024 0.72864288 7.7433413e-39
-0.18253955 0.11638159 0.7323572 8.0199478e-39
-0.18560693 0.12620199 0.73676205 7.2816527e-39
-0.19006002 0.1399343 0.73100001 6.1749548e-39
-0.18561852 0.13448668 0.73550004 7.1894444e-39
-0.19067989 0.14662394 0.73137498 6.267128e-39
-0.18828972 0.14386675 0.73527795 6.6362805e-39
-0.19415 0.15591475 0.73515397 6.1745751e-39
-0.18995811 0.15070477 0.73600006 6.543366e-39
-0.20124099 0.16801146 0.73200005 5.8987084e-39
-0.1968656 0.16447859 0.73541683 5.8997804e-39
-0.20402963 0.17523351 0.73444128 6.1738702e-39
-0.19917811 0.17102572 0.73900002 5.899793e-39
-0.21367562 0.18629204 0.73370004 6.1735143e-39
-0.20676516 0.18338756 0.73658341 6.082392e-39
-0.23043907 0.19980668 0.73100001 7.283445e-39
-0.22340393 0.19712606 0.73295671 7.0054259e-39
-0.21712102 0.19374973 0.73596781 6.7288362e-39
-0.25390005 0.20791411 0.73159999 9.1226898e-39
-0.24400367 0.20756862 0.73171443 8.6627921e-39
-0.2343314 0.20631766 0.73325014 8.7567884e-39
-0.2267126 0.20352656 0.73635727 7.7411847e-39
-0.2566005 0.2118424 0.73816675 1.3546223e-38
-0.24404192 0.21108222 0.73633337 1.363592e-38
-0.236067 0.21080415 0.73700011 1.152371e-38
-0.18244293 0.12679429 0.7418462 8.2950745e-39
-0.18311839 0.13601413 0.74381244 8.2018055e-39
-0.18546414 0.14543207 0.74350005 7.5585899e-39
-0.19148377 0.15709327 0.74350005 6.268221e-39
-0.18759391 0.1528136 0.74629414 7.3734924e-39
-0.1936689 0.16509263 0.74400008 6.5437149e-39
-0.20116575 0.17757255 0.74114287 6.0830955e-39
-0.19783537 0.17412475 0.74431813 6.4522494e-39
-0.2040163 0.18542491 0.7438333 6.4518878e-39
-0.19991145 0.18212572 0.74700004 6.8203088e-39
-0.2132051 0.19628567 0.74295998 6.3586314e-39
-0.20764944 0.19400723 0.74569565 7.0976342e-39
-0.22371739 0.20667267 0.7430476 1.1063455e-38
-0.21729498 0.20267197 0.74507695 9.400713e-39
-0.26128381 0.21767858 0.7445001 1.3089572e-38
-0.2549549 0.2165937 0.74435323 6.0859864e-39
-0.24495186 0.21612011 0.74455547 4.7949224e-39
-0.23507003 0.21536972 0.74500006 6.1735157e-39
-0.22732486 0.21245497 0.74646163 6.9103731e-39
-0.25375462 0.22105685 0.74633336 4.2395136e-39
-0.18616901 0.1564704 0.75200003 8.0177604e-39
-0.19137594 0.16650046 0.75130773 7.2802108e-39
-0.18758246 0.1644367 0.75396007 8.0170583e-39
-0.19398476 0.17541049 0.75406253 7.0958139e-39
-0.18852429 0.1740967 0.75753844 1.0690702e-38
-0.20136392 0.18776029 0.75190002 6.0827606e-39
-0.19712362 0.18444839 0.75559372 8.1092554e-39
-0.18841715 0.18119811 0.75800002 1.0688582e-38
-0.20332651 0.19550481 0.7536062 1.0417383e-38
-0.19907907 0.19187859 0.75600004 1.4108064e-38
-0.22100858 0.2088505 0.75100005 1.0702966e-38
-0.21429971 0.20638977 0.7535485 8.8482665e-39
-0.20802233 0.20314409 0.75406677 7.002217e-39
-0.19924572 0.20718668 0.75800002 5.1632832e-39
-0.23122525 0.21800335 0.75050002 4.7019617e-39
-0.22423059 0.21568844 0.75125724 4.4218001e-39
-0.21603909 0.21277018 0.75503463 3.5041598e-39
-0.20546573 0.21051717 0.75700003 4.9782039e-39
-0.19931178 0.21085082 0.7573334 5.4294444e-39
-0.22518286 0.22016287 0.75300002 4.5154265e-39
-0.19144763 0.17841905 0.76000005 9.8634708e-39
-0.1924517 0.18484938 0.76025003 1.5397739e-38
-0.20075907 0.19641049 0.76100004 8.9282597e-39
-0.19738105 0.19329675 0.76118183 9.8602745e-39
-0.20450647 0.20606883 0.76146156 4.8856579e-39
-0.20669214 0.21049932 0.76150006 4.517939e-39
