# .PCD v0.7 - Point Cloud Data file format
VERSION 0.7
FIELDS x y z rgb
SIZE 4 4 4 4
TYPE F F F F
COUNT 1 1 1 1
WIDTH 505
HEIGHT 1
VIEWPOINT 0 0 0 1 0 0 0
POINTS 505
DATA ascii
-0.39662671 -0.36904669 1.3790001 4.0545016e-39
-0.39879212 -0.36713493 1.3850001 1.0145695e-39
-0.37728572 -0.39052385 1.3900001 1.1034655e-38
-0.35431814 -0.39287433 1.396 8.0174325e-39
-0.38485038 -0.38447216 1.3900002 9.8635073e-39
-0.3759681 -0.38468286 1.3921429 1.004893e-38
-0.36419061 -0.38545877 1.395625 1.0593473e-38
-0.3548567 -0.38542432 1.3955001 1.216586e-38
-0.34891337 -0.38207716 1.3930001 1.2717271e-38
-0.39105335 -0.37516767 1.3900002 8.1114582e-39
-0.38485622 -0.37580174 1.3931763 7.7447958e-39
-0.37682199 -0.37600294 1.395077 6.730288e-39
-0.36428958 -0.37492576 1.396 7.1887536e-39
-0.35522461 -0.37504661 1.396 5.9938033e-39
-0.34700572 -0.37359619 1.3960001 7.1909004e-39
-0.33504 -0.37093717 1.396 2.4018396e-39
-0.40376192 -0.36934289 1.3900001 3.6990636e-40
-0.39402881 -0.36751452 1.3920002 1.2914927e-39
-0.38549528 -0.36742744 1.3948001 1.8443064e-39
-0.3767871 -0.3672145 1.396 3.2233242e-39
-0.36428955 -0.3669486 1.396 5.4481868e-39
-0.35551468 -0.36721453 1.396 8.3984301e-39
-0.34168765 -0.3669486 1.396 1.0505605e-38
-0.33593813 -0.3646135 1.3942001 9.2184784e-39
-0.32764286 -0.36437863 1.3900002 8.6642298e-39
-0.37475783 -0.39258322 1.4036669 1.0300298e-38
-0.36184955 -0.39389527 1.4020001 7.5381197e-39
-0.37253147 -0.38410354 1.4020002 8.7571233e-39
-0.37319905 -0.37453431 1.4020001 8.4805518e-39
-0.35205781 -0.37609214 1.4020002 5.4330289e-39
-0.34777859 -0.37319574 1.4045 6.8167257e-39
-0.37342161 -0.36808068 1.4020002 2.3092838e-39
-0.35214835 -0.3675155 1.4032501 8.8525909e-39
-0.34644338 -0.36684024 1.4045002 8.8536573e-39
-0.34596574 -0.38245431 1.419 8.1171657e-39
-0.35137147 -0.37975144 1.419 6.6262206e-39
-0.34315717 -0.37814575 1.4130001 5.8112324e-39
-0.35285717 -0.38407144 1.4250001 6.364032e-39
-0.34878573 -0.38678575 1.4250001 1.0419173e-38
-0.35298002 -0.38841432 1.4310001 9.6830733e-39
-0.35367715 -0.39496669 1.4450001 1.3271143e-38
-0.15242858 -0.41987145 1.455 3.5103465e-39
-0.22214574 -0.4261286 1.4670001 6.1778233e-39
-0.21935144 -0.4261286 1.4670001 8.8594475e-39
-0.16067144 -0.4261286 1.4670001 9.0456506e-39
-0.15466383 -0.42496669 1.4630002 9.8732561e-39
-0.36038002 -0.40212288 1.4610001 1.345594e-38
-0.35622764 -0.40360481 1.4630002 1.4104883e-38
-0.2230543 -0.43067718 1.473 4.6850929e-39
-0.15291144 -0.43067718 1.473 1.3913628e-38
-0.35492289 -0.41103718 1.473 1.678139e-38
-0.36334002 -0.40823147 1.473 1.4200298e-38
-0.15426096 -0.44013911 1.4860001 1.216948e-38
-0.14860001 -0.44013909 1.4860001 1.1615269e-38
-0.23068382 -0.43730861 1.4860001 6.2676325e-39
-0.22484116 -0.43582326 1.4848001 4.5986608e-39
-0.21087049 -0.43164766 1.4860001 1.1209511e-38
-0.20804001 -0.43164766 1.4860001 8.2789456e-39
-0.16558287 -0.43447813 1.4860001 7.558667e-39
-0.15583239 -0.43582556 1.4848001 1.3461998e-38
-0.36560321 -0.42221278 1.4860001 9.4817922e-39
-0.35522479 -0.42032576 1.4860001 1.8808259e-38
-0.34390289 -0.42032576 1.4860001 1.8812246e-38
-0.31276762 -0.42315623 1.4860001 1.7231172e-38
-0.21087049 -0.42881718 1.4860001 9.1187732e-39
-0.20804001 -0.42881718 1.4860001 9.0315494e-39
-0.37220764 -0.41749525 1.4860001 1.1240654e-38
-0.36510369 -0.41556469 1.4834287 1.530229e-38
-0.35606557 -0.41602823 1.4848001 1.7148744e-38
-0.34673333 -0.41749525 1.4860001 1.7705168e-38
-0.23161526 -0.44191623 1.4920001 1.1260488e-38
-0.22503048 -0.44223908 1.4955001 4.7924421e-39
-0.21414287 -0.4411343 1.4990001 9.4143365e-39
-0.20986001 -0.4411343 1.4990001 6.2674881e-39
-0.19843906 -0.4411343 1.4990001 4.9673802e-39
-0.18416288 -0.44541717 1.4990001 1.3251785e-38
-0.17554027 -0.44361678 1.4950001 1.8340431e-38
-0.16449212 -0.44481841 1.4941002 1.4571942e-38
-0.15488383 -0.44617909 1.4920001 1.4015172e-38
-0.14920001 -0.44475812 1.4920001 1.1329357e-38
-0.35547718 -0.43256864 1.4990001 2.0557823e-38
-0.22076429 -0.43583477 1.4955001 1.0892782e-38
-0.21595676 -0.43496031 1.4960001 1.161633e-38
-0.20428246 -0.43559921 1.4940001 5.6199523e-39
-0.19609144 -0.43623242 1.4920001 1.2619262e-38
-0.18230857 -0.43867669 1.4955001 1.7431431e-38
-0.17437544 -0.43777853 1.4934001 1.0239145e-38
-0.16530414 -0.43812701 1.4920001 9.9514388e-39
-0.37228954 -0.42202288 1.4920001 1.0587362e-38
-0.3642078 -0.42555743 1.4930001 1.1524852e-38
-0.35500208 -0.42584944 1.4943335 1.9361086e-38
-0.34504172 -0.42412668 1.4934001 1.7698664e-38
-0.33781466 -0.42524642 1.4966668 1.0874715e-38
-0.32474047 -0.42586148 1.4955001 1.3272906e-38
-0.31829333 -0.4248648 1.4920001 1.6587613e-38
-0.17354858 -0.45180002 1.506 1.7051475e-38
-0.16781144 -0.45180002 1.506 1.9353105e-38
-0.15490288 -0.45466861 1.506 1.4850346e-38
-0.23378858 -0.44893146 1.506 1.3016142e-38
-0.21514288 -0.44534576 1.506 5.7154634e-39
-0.20438573 -0.44391143 1.506 1.7510303e-39
-0.19444819 -0.44483352 1.506 4.7899815e-39
-0.18789144 -0.4431943 1.506 1.4196297e-38
-0.35211715 -0.43530574 1.506 2.0926953e-38
-0.34470671 -0.43363243 1.506 1.5010207e-38
-0.33562288 -0.4326762 1.506 1.0319738e-38
-0.32558289 -0.43172002 1.506 1.4285969e-38
-0.31841147 -0.43172002 1.506 1.566315e-38
-0.34566289 -0.42885146 1.506 1.8609799e-38
-0.33418858 -0.42885146 1.506 1.1517569e-38
-0.15190001 -0.4614867 1.5190001 2.1479797e-38
-0.14900668 -0.4614867 1.5190001 2.2499335e-38
-0.23291335 -0.45473561 1.5190001 1.6888624e-38
-0.22439067 -0.45255071 1.5162001 1.2159134e-38
-0.2150567 -0.45321006 1.5155001 9.9535855e-39
-0.20495334 -0.4534505 1.5170001 1.2991802e-38
-0.19485001 -0.45321006 1.5155001 1.4735616e-38
-0.18568501 -0.45589837 1.5172501 1.4293274e-38
-0.17739335 -0.45526451 1.5143335 1.5948025e-38
-0.16636667 -0.45859337 1.5190001 1.4754857e-38
-0.35280001 -0.44208002 1.5120001 2.1294302e-38
-0.34599501 -0.4425917 1.5137501 1.2438512e-38
-0.33562669 -0.4441267 1.5190001 1.0597405e-38
-0.32607868 -0.44239068 1.5190001 1.4747687e-38
-0.31537336 -0.44123337 1.5190001 1.3186563e-38
-0.30814001 -0.44123337 1.5190001 5.6025734e-39
-0.29946002 -0.44123337 1.5190001 1.1712563e-38
-0.22176 -0.44784003 1.5120001 9.8114715e-41
-0.20736001 -0.44784003 1.5120001 2.1191781e-39
-0.34662861 -0.43714294 1.5120002 1.5294352e-38
-0.33609602 -0.43804803 1.5120001 1.0229695e-38
-0.32630402 -0.43689606 1.5120001 1.4103371e-38
-0.31536537 -0.43597603 1.5148001 8.5706581e-39
-0.30563003 -0.43538502 1.5137501 5.7122362e-39
-0.29659602 -0.43638 1.5162001 8.7571779e-39
-0.21785715 -0.46040478 1.5250001 7.3002942e-39
-0.20333335 -0.46040478 1.5250001 2.1213638e-38
-0.19607145 -0.46040481 1.5250001 2.1304756e-38
-0.18445238 -0.46040478 1.5250001 1.7723495e-38
-0.17283334 -0.46040478 1.5250001 1.6302367e-38
-0.16702382 -0.46040478 1.5250001 1.4753803e-38
-0.15540478 -0.46427783 1.5250001 1.7619823e-38
-0.23673812 -0.45604765 1.5250001 1.5954111e-38
-0.22511907 -0.45750004 1.5250001 1.9833786e-38
-0.20769049 -0.45750004 1.5250001 1.6977328e-38
-0.32242858 -0.44588098 1.5250001 1.9907056e-38
-0.31574765 -0.44471908 1.5250001 1.7512561e-38
-0.30500001 -0.44491273 1.5250001 1.1806157e-38
-0.29676986 -0.44394445 1.5250001 1.3637438e-38
-0.16269429 -0.47049433 1.539 1.6237292e-38
-0.15829715 -0.47049433 1.539 1.9372979e-38
-0.24184287 -0.46170002 1.539 8.7719e-39
-0.23430492 -0.46588784 1.5390002 1.0328792e-38
-0.22463392 -0.46596766 1.5376 6.0870724e-39
-0.21448441 -0.465545 1.5362 1.2076691e-38
-0.20669359 -0.46523836 1.5337501 2.1577024e-38
-0.19481163 -0.46527797 1.5334001 2.258971e-38
-0.18516859 -0.46756288 1.539 2.2406264e-38
-0.1747562 -0.46577004 1.5355 1.4735082e-38
-0.16512796 -0.46614513 1.5343335 1.0884203e-38
-0.33418286 -0.45290574 1.539 1.1515094e-38
-0.32502025 -0.45239076 1.53725 1.8344429e-38
-0.31441194 -0.45334145 1.5355 1.8432691e-38
-0.3048996 -0.45327929 1.5360001 1.8995172e-38
-0.2960743 -0.45437145 1.539 1.4654793e-38
-0.22907048 -0.45960003 1.5320001 2.1195547e-38
-0.29468796 -0.44763717 1.5343335 1.4561863e-38
-0.23263621 -0.47263432 1.5460001 1.3174048e-38
-0.22527431 -0.47263432 1.5460002 9.567284e-39
-0.21496764 -0.47263432 1.5460001 1.6929249e-38
-0.20466098 -0.47263432 1.5460002 2.2855907e-38
-0.19877145 -0.47263432 1.5460001 2.277233e-38
-0.17226858 -0.47263432 1.5460001 7.8625315e-39
-0.16785145 -0.47263432 1.5460001 1.2553773e-38
-0.32392383 -0.46085528 1.5460001 2.2035837e-38
-0.31508955 -0.46085528 1.5460001 2.0741504e-38
-0.30772763 -0.46085528 1.5460001 2.1380751e-38
-0.29359278 -0.46144423 1.5460001 1.576407e-38
-0.28343335 -0.46159145 1.5460001 1.364467e-38
-0.27607143 -0.46159148 1.5460001 1.8622441e-38
-0.26797336 -0.46085528 1.5460001 1.9264564e-38
-0.24294287 -0.46674478 1.5460001 6.4637792e-39
-0.23705335 -0.46968955 1.5460001 1.0779076e-38
-0.18404762 -0.46968955 1.5460001 2.3410686e-38
-0.32539624 -0.45791051 1.5460002 1.9638773e-38
-0.30183813 -0.45791051 1.5460001 1.8805389e-38
-0.29182592 -0.45496574 1.5460001 1.4196665e-38
-0.28343335 -0.45717433 1.5460001 9.5077106e-39
-0.27533525 -0.45791051 1.5460002 1.8712839e-38
-0.19375524 -0.47477433 1.5530001 1.8357264e-38
-0.18192287 -0.47477433 1.5530001 1.1161243e-38
-0.17748573 -0.47477433 1.5530001 8.5770172e-39
-0.1641743 -0.47773242 1.5530001 2.0570784e-38
-0.15825811 -0.47773242 1.5530001 2.341769e-38
-0.32440448 -0.46639305 1.5530002 2.212516e-38
-0.31503719 -0.46590003 1.5530002 2.1942556e-38
-0.30497965 -0.46471682 1.5530001 2.009794e-38
-0.29433054 -0.46688604 1.5530002 1.8440932e-38
-0.28545621 -0.4668861 1.5530002 1.6695706e-38
-0.27288431 -0.46663958 1.5530001 1.9084127e-38
-0.26474956 -0.46590003 1.5530002 1.8341513e-38
-0.25883335 -0.46885812 1.5530001 1.3538244e-38
-0.33426479 -0.45998383 1.5530001 1.0967765e-38
-0.29137239 -0.45702574 1.5530001 1.4193007e-38
-0.28693527 -0.45554668 1.5530001 8.578525e-39
-0.15670002 -0.49099335 1.567 2.341769e-38
-0.23131907 -0.48203909 1.567 1.7592012e-38
-0.22385716 -0.48203909 1.567 1.8628943e-38
-0.21440542 -0.48303401 1.5670002 2.1304023e-38
-0.20445621 -0.48303401 1.5670002 2.2774842e-38
-0.19550192 -0.48303401 1.5670002 1.364109e-38
-0.18505526 -0.48203909 1.567 2.5783948e-39
-0.17460859 -0.48402894 1.5670002 1.1230405e-38
-0.16516542 -0.4835794 1.5623335 2.1656666e-38
-0.1593281 -0.48543289 1.5635 2.341769e-38
-0.32163098 -0.4764986 1.5635 2.2865598e-38
-0.3149499 -0.47425646 1.5619093 2.2864878e-38
-0.30562621 -0.47463816 1.5635002 2.2680126e-38
-0.29704747 -0.47403032 1.5642 2.1204277e-38
-0.2853986 -0.47352052 1.5635002 1.9179924e-38
-0.27569443 -0.47511512 1.5626252 1.9450386e-38
-0.26497084 -0.47440764 1.5606365 1.6864257e-38
-0.25582787 -0.47596359 1.5617501 1.4479774e-38
-0.24289146 -0.47735053 1.5646667 1.0510083e-38
-0.22731429 -0.47988576 1.5600001 1.4469701e-38
-0.21542859 -0.47988576 1.5600001 2.092089e-38
-0.20502859 -0.47988576 1.5600001 2.1669223e-38
-0.1961143 -0.47840005 1.5600001 1.9536818e-38
-0.18720001 -0.47691432 1.5600001 1.383818e-38
-0.17234287 -0.47988576 1.5600001 8.9517272e-39
-0.1649143 -0.47988576 1.5600001 2.0558574e-38
-0.30457145 -0.46800002 1.5600001 2.0467085e-38
-0.19937335 -0.4901886 1.5740001 2.341769e-38
-0.17388955 -0.4901886 1.5740001 2.184786e-38
-0.16489525 -0.49243718 1.5740002 2.2957076e-38
-0.15740001 -0.4961848 1.5740001 2.341769e-38
-0.31030288 -0.4841924 1.5740001 2.341769e-38
-0.30280763 -0.48119432 1.5740001 2.3142182e-38
-0.29831049 -0.48119432 1.5740001 2.2588298e-38
-0.28631812 -0.48119435 1.5740001 2.101521e-38
-0.26832953 -0.4841924 1.5740001 1.8439132e-38
-0.25184 -0.48119432 1.5740001 1.3821047e-38
-0.24734287 -0.48119432 1.5740001 7.8414168e-39
-0.22036001 -0.48719051 1.5740001 2.1213638e-38
-0.21586287 -0.48719051 1.5740001 2.222347e-38
-0.20686859 -0.48719051 1.5740001 2.3142183e-38
-0.19337717 -0.48719054 1.5740001 1.5313193e-38
-0.18438289 -0.48719054 1.5740001 1.0660763e-38
-0.17838667 -0.48719051 1.5740001 1.1784325e-38
-0.29231429 -0.47819623 1.5740001 2.045987e-38
-0.17252001 -0.50242674 1.5890001 2.341769e-38
-0.16440478 -0.50224864 1.5836668 2.341769e-38
-0.27088669 -0.49183336 1.5890001 1.9079441e-38
-0.26786003 -0.49183336 1.5890001 1.8340113e-38
-0.25726667 -0.49183336 1.5890001 1.6206027e-38
-0.23305336 -0.49183336 1.5890001 8.5924945e-39
-0.22246002 -0.49486002 1.5890001 2.2040153e-38
-0.21434858 -0.49462318 1.5850003 2.3417689e-38
-0.20378193 -0.49512765 1.5850002 2.341769e-38
-0.19402497 -0.49457583 1.5842001 2.2866314e-38
-0.18487363 -0.49552184 1.5855716 2.0746917e-38
-0.17466286 -0.49538004 1.5810001 2.231566e-38
-0.16562858 -0.49839145 1.5810001 2.341769e-38
-0.30793905 -0.48757622 1.585 2.3417331e-38
-0.29586288 -0.48455715 1.585 2.2032966e-38
-0.28299335 -0.48880669 1.5890001 2.0189774e-38
-0.27601558 -0.48716605 1.5836668 1.9268168e-38
-0.26438385 -0.48798639 1.5863335 1.5948085e-38
-0.25488985 -0.48716605 1.5836668 1.390075e-38
-0.24516001 -0.48880669 1.5890001 1.7154096e-38
-0.23639716 -0.48634574 1.5810001 2.0719465e-38
-0.22585715 -0.48935717 1.5810001 1.7071355e-38
-0.16568001 -0.51224005 1.5960001 2.341769e-38
-0.22192001 -0.50008005 1.5960001 2.3046754e-38
-0.21280003 -0.50160003 1.5960001 2.341769e-38
-0.20672002 -0.50160003 1.5960001 2.341769e-38
-0.19456002 -0.50160003 1.5960001 2.341769e-38
-0.18240002 -0.50312001 1.5960001 2.341769e-38
-0.17556 -0.50616002 1.5960001 2.341769e-38
-0.1672 -0.50920004 1.5960001 2.341769e-38
-0.31312001 -0.49400002 1.5960001 2.341769e-38
-0.30552003 -0.49096003 1.5960001 2.341769e-38
-0.29184002 -0.49096003 1.5960001 2.267868e-38
-0.28576002 -0.49248004 1.5960001 2.111425e-38
-0.27512002 -0.49501336 1.5960001 2.0093618e-38
-0.26600003 -0.49552 1.5960001 1.8716098e-38
-0.25505599 -0.49582401 1.5960001 1.4651254e-38
-0.24472003 -0.49400005 1.5960001 1.2543905e-38
-0.23560001 -0.49552003 1.5960001 6.2854906e-39
-0.22800002 -0.49704003 1.5960001 1.5394627e-38
-0.17404002 -0.51296008 1.603 2.341769e-38
-0.16946001 -0.51448673 1.603 2.341769e-38
-0.26411337 -0.50227344 1.603 2.1947605e-38
-0.25495335 -0.50303668 1.603 1.9649182e-38
-0.24655668 -0.50303668 1.603 1.1428336e-38
-0.23510668 -0.50227338 1.603 9.5059562e-39
-0.22442001 -0.50430894 1.603 2.2948818e-38
-0.21526001 -0.50532669 1.603 2.341769e-38
-0.20610002 -0.50532669 1.603 2.341769e-38
-0.19694003 -0.50532669 1.603 2.341769e-38
-0.18472669 -0.50736231 1.603 2.341769e-38
-0.31449336 -0.49922004 1.603 2.341769e-38
-0.30511528 -0.49573055 1.603 2.341733e-38
-0.29541001 -0.49540338 1.603 2.3233657e-38
-0.28625003 -0.49769336 1.603 2.258901e-38
-0.27785337 -0.49922004 1.603 2.1575568e-38
-0.26411334 -0.49922004 1.603 2.2031165e-38
-0.25190002 -0.49922004 1.603 1.0244197e-38
-0.24579334 -0.49922007 1.603 5.9924119e-39
-0.23816001 -0.49922004 1.603 3.042907e-39
-0.1733743 -0.52012289 1.6110001 2.341769e-38
-0.30973145 -0.51621908 1.618 2.341769e-38
-0.28199431 -0.51005524 1.618 2.341769e-38
-0.27583051 -0.51005524 1.618 2.341769e-38
-0.26966667 -0.51005524 1.618 2.341769e-38
-0.2535283 -0.51165718 1.6133335 2.2128753e-38
-0.24430034 -0.51165718 1.6133335 1.3281633e-38
-0.23576574 -0.51210988 1.618 2.0659748e-38
-0.22446541 -0.51210988 1.618 2.3415175e-38
-0.21295857 -0.51279765 1.6145 2.341769e-38
-0.20435113 -0.51165718 1.6133335 2.341769e-38
-0.19514099 -0.51165718 1.6133335 2.341769e-38
-0.18451096 -0.51510572 1.6145 2.341769e-38
-0.17797714 -0.51552004 1.6110001 2.341769e-38
-0.3129943 -0.50478005 1.6110001 2.341769e-38
-0.30520046 -0.50471824 1.6150001 2.341769e-38
-0.29521954 -0.50434244 1.6145 2.341769e-38
-0.2841512 -0.50456125 1.6127501 2.3233297e-38
-0.27463716 -0.50478005 1.6110001 2.1579545e-38
-0.26389715 -0.50784862 1.6110001 2.341769e-38
-0.25622573 -0.50784862 1.6110001 2.3417305e-38
-0.24395144 -0.50784862 1.6110001 7.5608838e-39
-0.23628002 -0.50784862 1.6110001 1.7159913e-38
-0.30816573 -0.52186859 1.626 2.341769e-38
-0.18582858 -0.52186859 1.626 2.341769e-38
-0.17808573 -0.52496576 1.626 2.341769e-38
-0.31126288 -0.5141257 1.626 2.341769e-38
-0.30584288 -0.51335144 1.626 2.341769e-38
-0.29577717 -0.51257718 1.6260002 2.341769e-38
-0.28648573 -0.51360953 1.6260002 2.341769e-38
-0.26480573 -0.51567429 1.6260002 2.341769e-38
-0.25241715 -0.51877147 1.626 2.1489135e-38
-0.24622288 -0.51877153 1.6260002 1.8991972e-38
-0.23383431 -0.51670671 1.6260002 2.3234019e-38
-0.22531717 -0.51799715 1.626 2.341769e-38
-0.21680002 -0.51877147 1.626 2.341769e-38
-0.20750859 -0.51877147 1.626 2.341769e-38
-0.19357145 -0.51877153 1.6260002 2.341769e-38
-0.17273715 -0.53066099 1.6340001 2.341769e-38
-0.30656955 -0.52210194 1.6340001 2.341769e-38
-0.28633907 -0.52132386 1.6340001 2.341769e-38
-0.27855811 -0.52132386 1.6340001 2.341769e-38
-0.26766479 -0.52132386 1.6340001 2.341769e-38
-0.25832763 -0.52132386 1.6340001 2.3417687e-38
-0.24120954 -0.52132386 1.6340001 2.1029248e-38
-0.23290986 -0.52236134 1.6340002 2.341769e-38
-0.22564763 -0.52443624 1.6340001 2.341769e-38
-0.2163105 -0.52443624 1.6340002 2.341769e-38
-0.20282352 -0.5223614 1.6340002 2.341769e-38
-0.19296762 -0.52443624 1.6340001 2.341769e-38
-0.18518668 -0.52754867 1.6340002 2.341769e-38
-0.3034572 -0.51821148 1.6340002 2.341769e-38
-0.29412001 -0.51821148 1.6340002 2.341769e-38
-0.28478289 -0.51821148 1.6340001 2.341769e-38
-0.27544576 -0.51821148 1.6340002 2.341769e-38
-0.30310193 -0.53239149 1.649 2.341769e-38
-0.2905381 -0.53239149 1.649 2.341769e-38
-0.28425622 -0.53239149 1.649 2.341769e-38
-0.27483338 -0.53239149 1.649 2.341769e-38
-0.26855144 -0.53239149 1.649 2.341769e-38
-0.25284669 -0.53239149 1.649 2.341769e-38
-0.24499431 -0.53239149 1.649 2.341769e-38
-0.23400097 -0.53239149 1.649 2.341769e-38
-0.22457811 -0.53239149 1.649 2.341769e-38
-0.21515527 -0.53239149 1.649 2.341769e-38
-0.20573239 -0.53239149 1.649 2.341769e-38
-0.19473907 -0.53474718 1.649 2.341769e-38
-0.18374573 -0.53553241 1.649 2.341769e-38
-0.17660287 -0.53293431 1.641 2.341769e-38
-0.30413201 -0.52730805 1.641 2.341769e-38
-0.29610002 -0.52640384 1.645 2.341769e-38
-0.28522146 -0.5259015 1.641 2.341769e-38
-0.27550986 -0.52649689 1.6436667 2.341769e-38
-0.26541051 -0.52820355 1.649 2.341769e-38
-0.2551648 -0.52753878 1.6436666 2.24075e-38
-0.2453686 -0.52668297 1.6410002 2.1486992e-38
-0.23599145 -0.52772486 1.6410002 2.341769e-38
-0.2266143 -0.52668291 1.641 2.341769e-38
-0.21098574 -0.52668291 1.641 2.341769e-38
-0.2047343 -0.52668291 1.641 2.341769e-38
-0.19535717 -0.52876675 1.6410002 2.341769e-38
-0.19252762 -0.54128671 1.6570001 2.341769e-38
-0.18621525 -0.54128671 1.6570001 2.341769e-38
-0.17832477 -0.54128671 1.6570001 2.341769e-38
-0.30141622 -0.53497434 1.6570001 2.341769e-38
-0.29668194 -0.53497434 1.6570001 2.341769e-38
-0.28405717 -0.53813052 1.6570001 2.341769e-38
-0.27616668 -0.53813052 1.6570001 2.341769e-38
-0.26433098 -0.53418529 1.6570001 2.341769e-38
-0.25407335 -0.5370785 1.6570001 2.341769e-38
-0.24460477 -0.53813052 1.6570001 2.341769e-38
-0.23513621 -0.53813052 1.6570001 2.341769e-38
-0.22566764 -0.53813052 1.6570001 2.341769e-38
-0.21619907 -0.53813052 1.6570001 2.341769e-38
-0.20515239 -0.53813052 1.6570001 2.341769e-38
-0.19504288 -0.5502429 1.6650002 2.341769e-38
-0.18552861 -0.5502429 1.6650002 2.341769e-38
-0.30445716 -0.54072863 1.6650001 2.341769e-38
-0.29494286 -0.54072863 1.6650001 2.341769e-38
-0.28225714 -0.54390001 1.6650001 2.341769e-38
-0.27115718 -0.54072863 1.6650001 2.341769e-38
-0.26640004 -0.54072863 1.6650001 2.341769e-38
-0.25847146 -0.54072863 1.6650001 2.341769e-38
-0.24578574 -0.54390001 1.6650002 2.341769e-38
-0.23627144 -0.54390001 1.6650001 2.341769e-38
-0.2204143 -0.54390001 1.6650001 2.341769e-38
-0.21407144 -0.54390001 1.6650001 2.341769e-38
-0.20392287 -0.54516858 1.6650002 2.341769e-38
-0.19583571 -0.5462786 1.6650001 2.341769e-38
-0.18473573 -0.5462786 1.6650001 2.341769e-38
-0.17918573 -0.54707146 1.6650001 2.341769e-38
-0.21191335 -0.55607337 1.6730001 2.341769e-38
-0.20554002 -0.55607343 1.6730002 2.341769e-38
-0.19598001 -0.55607337 1.6730001 2.341769e-38
-0.18642001 -0.55607337 1.6730001 2.341769e-38
-0.28839335 -0.54651338 1.6730001 2.341769e-38
-0.26290002 -0.54332668 1.6730001 2.341769e-38
-0.25015336 -0.54970002 1.6730001 2.341769e-38
-0.24378002 -0.54863781 1.6730001 2.341769e-38
-0.23262668 -0.54651338 1.6730001 2.341769e-38
-0.22466001 -0.54651338 1.6730001 2.341769e-38
-0.21510002 -0.54890335 1.6730001 2.341769e-38
-0.20872667 -0.54970002 1.6730001 2.341769e-38
-0.20011906 -0.56193435 1.6810001 2.341769e-38
-0.19451573 -0.56273484 1.6810001 2.341769e-38
-0.25295049 -0.55392957 1.6810001 2.341769e-38
-0.24174383 -0.55232859 1.6810001 2.341769e-38
-0.23854192 -0.55232859 1.6810001 2.341769e-38
-0.2235997 -0.55339593 1.6810001 2.341769e-38
-0.2171959 -0.55659783 1.6810001 2.341769e-38
-0.29457524 -0.54912668 1.6810001 2.341769e-38
-0.26095524 -0.54912668 1.6810001 2.341769e-38
-0.25615239 -0.54912668 1.6810001 2.341769e-38
-0.22893621 -0.54912668 1.6810001 2.341769e-38
-0.2614381 -0.56222671 1.6980002 2.341769e-38
-0.2535924 -0.56452668 1.696 2.341769e-38
-0.24483545 -0.56373608 1.6980002 2.341769e-38
-0.23448575 -0.56397861 1.6980001 2.341769e-38
-0.22425842 -0.56466794 1.6940001 2.341769e-38
-0.21728572 -0.5649429 1.6900001 2.341769e-38
-0.20119049 -0.56816196 1.6900001 2.341769e-38
-0.1947524 -0.56816196 1.6900001 2.341769e-38
-0.30300891 -0.55488706 1.6953334 2.341769e-38
-0.29547751 -0.55703819 1.6953335 2.341769e-38
-0.28533527 -0.55508894 1.6926668 2.341769e-38
-0.27522862 -0.55206668 1.6900001 2.341769e-38
-0.26619622 -0.55499053 1.694 2.341769e-38
-0.25752383 -0.55689526 1.6900001 2.341769e-38
-0.24786669 -0.55850482 1.6900001 2.341769e-38
-0.23338097 -0.55528581 1.6900001 2.341769e-38
-0.22694287 -0.55850482 1.6900001 2.341769e-38
-0.2615867 -0.57029146 1.7060001 2.341769e-38
-0.25508764 -0.57029146 1.7060001 2.341769e-38
-0.2437143 -0.57029146 1.7060001 2.341769e-38
-0.23396572 -0.57191622 1.7060001 2.341769e-38
-0.27296001 -0.56054288 1.7060001 2.341769e-38
-0.26700255 -0.56595874 1.7060001 2.341769e-38
-0.24208954 -0.56704193 1.7060001 2.341769e-38
-0.26623335 -0.57330006 1.715 2.341769e-38
-0.23683335 -0.5765667 1.715 2.341769e-38
-0.2825667 -0.56350005 1.715 2.341769e-38
-0.27603334 -0.56567782 1.715 2.341769e-38
-0.26255241 -0.58417904 1.723 2.341769e-38
-0.25762954 -0.58417904 1.723 2.341769e-38
-0.27403906 -0.57433337 1.723 2.341769e-38
-0.26419336 -0.57925624 1.723 2.341769e-38
-0.25762954 -0.57925624 1.723 2.341769e-38
-0.24286097 -0.57925624 1.723 2.341769e-38
-0.30357623 -0.5694105 1.723 2.341769e-38
-0.29537144 -0.5694105 1.723 2.341769e-38
-0.28388476 -0.56776953 1.723 2.341769e-38
-0.29526478 -0.58228195 1.7320001 2.341769e-38
-0.27492067 -0.58448136 1.7320002 2.341769e-38
-0.26887241 -0.58723056 1.7320001 2.341769e-38
-0.25457653 -0.58338165 1.7320001 2.341769e-38
-0.24907811 -0.58228195 1.7320001 2.341769e-38
-0.30516192 -0.57568383 1.7320001 2.341769e-38
-0.29526481 -0.57568383 1.7320002 2.341769e-38
-0.28536767 -0.57513404 1.7320002 2.341769e-38
-0.27876955 -0.57898289 1.7320001 2.341769e-38
-0.28021812 -0.59194005 1.7410001 2.341769e-38
-0.27690193 -0.59194005 1.7410001 2.341769e-38
-0.30232605 -0.58530772 1.7410001 2.341769e-38
-0.29306832 -0.58530766 1.7410001 2.341769e-38
-0.28552401 -0.58597088 1.7410001 2.341769e-38
-0.27690193 -0.58862382 1.7410001 2.341769e-38
-0.30656862 -0.60141051 1.7590002 2.341769e-38
-0.31326956 -0.59470952 1.7590001 2.341769e-38
-0.30629754 -0.59489071 1.7536001 2.341769e-38
-0.29583335 -0.59583336 1.7500001 2.341769e-38
-0.28611115 -0.59611118 1.7500002 2.341769e-38
-0.31414336 -0.58650434 1.7545002 2.341769e-38
-0.30611113 -0.58722228 1.7500002 2.341769e-38
-0.31374988 -0.60673273 1.7680001 2.341769e-38
-0.30813715 -0.60785526 1.7680001 2.341769e-38
