# .PCD v0.7 - Point Cloud Data file format
VERSION 0.7
FIELDS x y z rgb
SIZE 4 4 4 4
TYPE F F F F
COUNT 1 1 1 1
WIDTH 968
HEIGHT 1
VIEWPOINT 0 0 0 1 0 0 0
POINTS 968
DATA ascii
-0.02638929 -0.30161977 0.82100004 1.0012264e-38
0.028930478 -0.30181527 0.82100004 1.2500444e-38
0.035216324 -0.30490702 0.82423812 1.2589781e-38
0.04381761 -0.30496198 0.8272053 1.2586906e-38
-0.040792067 -0.29870319 0.82900012 9.3686962e-39
-0.034032993 -0.29567274 0.82700026 9.6445418e-39
-0.025333222 -0.29522282 0.82337224 1.0103366e-38
-0.018577406 -0.29317537 0.82209098 1.0654383e-38
0.008600953 -0.29008669 0.82100004 1.2039483e-38
0.015973199 -0.29031011 0.82100004 1.2314282e-38
0.025757654 -0.29359898 0.82119983 1.2499378e-38
0.034486152 -0.29492554 0.8253243 1.2499018e-38
0.042064991 -0.29675543 0.82853866 1.2589045e-38
-0.031896766 -0.28754461 0.82900012 9.8282184e-39
-0.025158411 -0.28480279 0.82533354 1.0011905e-38
-0.015979687 -0.28371039 0.82246655 1.0562569e-38
-0.0053207627 -0.28162247 0.82139999 1.1117186e-38
0.0054168962 -0.28379157 0.82122201 1.1761469e-38
0.014865491 -0.28476071 0.8214283 1.2130608e-38
0.025278658 -0.2848115 0.824682 1.2316775e-38
0.033138301 -0.28612518 0.8270002 1.2589792e-38
-0.023770887 -0.27813882 0.82800001 1.0011556e-38
-0.014548754 -0.27554277 0.82619143 1.0563642e-38
-0.0047143656 -0.27493793 0.82483357 1.1024979e-38
0.0047149607 -0.27498001 0.82495844 1.157815e-38
0.014938947 -0.27517092 0.82553601 1.2130968e-38
0.024298338 -0.27558258 0.82793766 1.2314996e-38
0.031317782 -0.27817559 0.82900012 1.249762e-38
-0.013536486 -0.26762018 0.82853866 1.0563637e-38
-0.0044252174 -0.2666553 0.82847846 1.0658003e-38
0.0049938979 -0.26610902 0.82803714 1.1668544e-38
0.013987087 -0.26668656 0.82876021 1.1853669e-38
0.021843493 -0.26870129 0.82900012 1.2314989e-38
-0.065877147 -0.34149927 0.83740008 9.8393517e-39
0.058487624 -0.34096289 0.8355 1.2218451e-38
0.061526671 -0.34119335 0.83900005 1.2218119e-38
-0.0633782 -0.3350431 0.83563161 6.3406163e-39
-0.059357148 -0.33002573 0.83100003 7.7160006e-39
0.057267483 -0.33469939 0.83507693 1.2218468e-38
0.061380003 -0.33798862 0.83700001 1.2309589e-38
-0.061844766 -0.32594901 0.83680004 6.8891027e-39
-0.058936711 -0.32367316 0.83318186 7.6248713e-39
0.056590796 -0.32433438 0.83507413 1.230959e-38
-0.056241933 -0.3148281 0.83568573 7.9915071e-39
0.054447517 -0.31488082 0.83513796 1.2218124e-38
-0.054388706 -0.30585042 0.83646667 8.175185e-39
-0.047837529 -0.30254307 0.83159989 8.8183993e-39
0.049442045 -0.30536127 0.83157146 1.240287e-38
0.052776586 -0.30520156 0.83626318 1.2310666e-38
-0.051386196 -0.29603624 0.83812499 8.6336437e-39
-0.044891991 -0.2947489 0.83350003 9.0017017e-39
-0.037988573 -0.29203716 0.83100003 9.3693926e-39
0.045496307 -0.29439226 0.83360606 1.2495786e-38
0.051386196 -0.29603618 0.83812493 1.2494339e-38
-0.050340004 -0.2884562 0.83900005 8.5432263e-39
-0.043347929 -0.28571424 0.83732271 9.0013402e-39
-0.035641119 -0.28416842 0.83264697 9.5523532e-39
0.037073936 -0.283694 0.83194751 1.2680533e-38
0.044599678 -0.28508347 0.83614999 1.2588348e-38
0.050340004 -0.28526005 0.83900005 1.249542e-38
-0.041710287 -0.27790877 0.83900005 8.9102306e-39
-0.034699053 -0.27574706 0.83694744 9.4612225e-39
-0.0260089 -0.27372286 0.83322853 9.7363843e-39
-0.019114152 -0.27268344 0.83128577 1.0287044e-38
0.028346857 -0.27285621 0.83140004 1.2499033e-38
0.035129063 -0.27460086 0.83321041 1.2589435e-38
0.04313945 -0.2763721 0.83749998 1.2587616e-38
-0.03148248 -0.26736137 0.83900005 9.7367318e-39
-0.024994748 -0.2656098 0.8372286 9.6449145e-39
-0.015705567 -0.26400957 0.83299989 1.047144e-38
-0.0051234583 -0.26229614 0.83100015 1.0841298e-38
0.0042777783 -0.2618134 0.83153343 1.1576711e-38
0.01631905 -0.26277113 0.83285719 1.1946224e-38
0.025521841 -0.26478732 0.83434862 1.2316053e-38
0.034869384 -0.26538235 0.83680004 1.2497948e-38
0.040751431 -0.26927906 0.83900005 1.2496865e-38
-0.022877147 -0.25730971 0.83881831 9.6452733e-39
-0.014736842 -0.25552014 0.83618194 1.0288122e-38
-0.0047668936 -0.255061 0.83433336 1.0657262e-38
0.0047708843 -0.25512198 0.8345238 1.1484871e-38
0.01491651 -0.255142 0.83597785 1.1944433e-38
0.025109584 -0.2554121 0.83736366 1.2222439e-38
0.033370096 -0.25832534 0.83820003 1.2407551e-38
-0.013458982 -0.24620098 0.83835727 1.0287773e-38
-0.0050320919 -0.24745518 0.83804345 1.0565446e-38
0.0050539686 -0.24722539 0.8378334 1.139304e-38
0.014363985 -0.24788892 0.8379091 1.1761834e-38
0.022346668 -0.24900478 0.838 1.2129518e-38
-0.071228579 -0.34305611 0.84666681 2.037558e-38
-0.068670169 -0.34227905 0.8416667 1.9164756e-38
0.062874764 -0.34240717 0.84100002 1.2126296e-38
-0.070262864 -0.33758479 0.84800005 2.0561416e-38
-0.067189127 -0.33433092 0.84271443 1.6029719e-38
0.063321613 -0.33488271 0.84494752 1.2217399e-38
-0.065500721 -0.32480586 0.84383339 1.344145e-38
0.061619475 -0.32400253 0.84511113 1.2124487e-38
-0.062901214 -0.31578365 0.84600019 8.2731092e-39
0.058497339 -0.31331983 0.84140009 1.1942282e-38
0.061608911 -0.31527233 0.84478587 1.2125206e-38
-0.060808767 -0.30694327 0.84680003 6.2462557e-39
-0.057430219 -0.30275613 0.8428182 7.8992988e-39
0.05718486 -0.30433676 0.84315795 1.2126648e-38
0.060969722 -0.30661854 0.84680003 1.2035157e-38
-0.055955283 -0.29489702 0.84429169 7.5323282e-39
0.056157432 -0.29456237 0.84429163 1.2217756e-38
0.062920876 -0.29610252 0.84800011 1.1666027e-38
-0.052338522 -0.28628439 0.8454445 8.1766074e-39
-0.047588069 -0.2828908 0.84306675 8.6343513e-39
0.054758959 -0.28551087 0.8446334 1.2402502e-38
-0.044563841 -0.27514035 0.84556651 8.909862e-39
-0.037546672 -0.2718474 0.84324998 9.3686681e-39
0.046894588 -0.273633 0.84205258 1.2588338e-38
0.052323256 -0.27646661 0.84517652 1.2495768e-38
-0.042114001 -0.266875 0.84710008 8.3599322e-39
-0.035886053 -0.26486355 0.84435129 7.9940112e-39
-0.02829184 -0.26171964 0.84185719 9.6442125e-39
0.039246671 -0.26111048 0.84100002 1.2682323e-38
0.044986155 -0.26532418 0.84376907 1.2680895e-38
0.050820004 -0.26861811 0.84700006 1.2496832e-38
-0.033532549 -0.25614953 0.84613031 9.369401e-39
-0.026203869 -0.253784 0.84264708 9.6449173e-39
-0.018421905 -0.25149906 0.84100002 1.0011931e-38
0.028511157 -0.25224209 0.84157151 1.2224943e-38
0.035836142 -0.25418937 0.84344447 1.2499029e-38
0.043296427 -0.25620592 0.84574986 1.2498306e-38
-0.031497143 -0.24874669 0.84800005 9.1853587e-39
-0.024142731 -0.24596813 0.84559447 9.553449e-39
-0.015589176 -0.2425115 0.8427369 1.0012269e-38
-0.0045863236 -0.24234033 0.84179986 1.0473251e-38
0.0045687375 -0.24243008 0.84204346 1.1300491e-38
0.014841503 -0.24290642 0.84235722 1.1761488e-38
0.02511967 -0.24474271 0.84365189 1.2223871e-38
0.034878243 -0.24535099 0.84566647 1.2499022e-38
0.041834667 -0.24826209 0.84800005 1.2772384e-38
-0.013036261 -0.23519082 0.84562969 1.0195588e-38
-0.004994337 -0.23445627 0.84415787 1.0472524e-38
0.0048021884 -0.23483954 0.84391898 1.1208661e-38
0.014678392 -0.23464733 0.8453331 1.1578163e-38
0.024525242 -0.2352102 0.84621423 1.2130599e-38
0.031900954 -0.23865144 0.84800005 1.2497946e-38
-0.0041361903 -0.22804976 0.84724987 1.0104807e-38
0.0048794993 -0.22795883 0.84642112 1.0932779e-38
0.013801002 -0.22736482 0.84705251 1.1484887e-38
0.020998096 -0.22774859 0.84800005 1.1946923e-38
-0.07337752 -0.34291276 0.85040009 2.0373424e-38
-0.072596893 -0.33476856 0.85242122 2.083441e-38
0.066421434 -0.3316943 0.85050005 1.2218834e-38
0.070594288 -0.33025146 0.85200006 1.1945475e-38
-0.071506403 -0.32554373 0.85457152 2.1019155e-38
-0.068350807 -0.3225686 0.85100007 2.0556338e-38
0.066443734 -0.32507527 0.85119998 1.2034448e-38
0.071273975 -0.3233102 0.85366672 1.1946225e-38
-0.071036205 -0.31762165 0.85733336 2.1018084e-38
-0.067058153 -0.3146973 0.85365224 1.8892136e-38
0.065985277 -0.31540701 0.85253352 1.2034808e-38
0.071357474 -0.3179886 0.85466671 1.1945475e-38
-0.064449862 -0.30472702 0.85421437 1.4921961e-38
0.06519454 -0.30522919 0.85147834 1.1944035e-38
-0.062681802 -0.29605368 0.85470593 1.5925267e-38
-0.059033971 -0.29163784 0.85300004 4.6847019e-39
0.063777246 -0.29343519 0.85090017 1.1849695e-38
-0.055802643 -0.28521895 0.85322231 7.4411947e-39
0.058460958 -0.28327131 0.8508572 1.2126637e-38
0.062243059 -0.28581008 0.85466677 1.1941526e-38
-0.053048529 -0.27568558 0.85347849 7.9003848e-39
-0.048501726 -0.27283391 0.85160011 8.4517439e-39
0.056724913 -0.27418649 0.85176933 1.2219182e-38
0.061723463 -0.27556351 0.85581827 1.2127005e-38
-0.052047864 -0.26697072 0.85724998 8.085132e-39
-0.046249643 -0.26421931 0.85364723 9.1889881e-39
0.049380954 -0.26147622 0.85000002 1.2679838e-38
0.055513483 -0.26459929 0.85395002 1.2402499e-38
0.061285719 -0.26802289 0.85800004 1.2401065e-38
-0.04282096 -0.25653094 0.8569333 9.0035136e-39
-0.037687529 -0.25429055 0.85228586 9.2804326e-39
0.047570385 -0.25405306 0.85090017 1.2589071e-38
0.054794971 -0.25513327 0.85535496 1.2403226e-38
-0.040740412 -0.2468939 0.85799998 8.8187342e-39
-0.034786668 -0.24447282 0.85377783 9.0942477e-39
-0.026005425 -0.24214698 0.85123086 9.5527301e-39
-0.018619049 -0.24042858 0.85000002 1.0011507e-38
0.038272858 -0.24198669 0.85049999 1.2499032e-38
0.046006881 -0.24463241 0.85322243 1.258978e-38
0.05261445 -0.24729413 0.85650003 1.2495774e-38
-0.031917099 -0.23603538 0.85694736 9.1857286e-39
-0.024420548 -0.23522125 0.85461926 9.5527231e-39
-0.017253334 -0.23377909 0.85173345 9.8285925e-39
0.02787075 -0.23140818 0.85000002 1.222136e-38
0.036119591 -0.23466095 0.85194582 1.2498303e-38
0.044865996 -0.23547262 0.85552949 1.2497946e-38
-0.030779049 -0.22907242 0.85800004 8.9095033e-39
-0.02359573 -0.22631374 0.85663998 9.4601659e-39
-0.014535377 -0.22502591 0.85346329 9.9197063e-39
-0.0053046886 -0.22364162 0.85176927 1.0197014e-38
0.0046375617 -0.22340406 0.85152006 1.1023555e-38
0.015100316 -0.22317092 0.85152394 1.1393769e-38
0.024955861 -0.22459698 0.85214996 1.185581e-38
0.034875043 -0.22495843 0.85432559 1.2406829e-38
0.043265365 -0.22642298 0.85712492 1.2498676e-38
-0.013448255 -0.21793185 0.85746664 9.8286051e-39
-0.0043083006 -0.21622841 0.85548574 1.0013701e-38
0.0050831325 -0.21483213 0.85497785 1.0840225e-38
0.014566971 -0.21477281 0.85472357 1.1392332e-38
0.024023369 -0.21592599 0.85600019 1.185509e-38
0.032558642 -0.2178705 0.85771424 1.2131322e-38
0.0065371431 -0.20837145 0.85800004 1.075018e-38
0.011440001 -0.20837145 0.85800004 1.1209354e-38
-0.074072711 -0.32471716 0.86100006 2.0650018e-38
0.06798096 -0.32024765 0.86000001 1.1667476e-38
-0.072055511 -0.31505036 0.86114293 2.055853e-38
-0.069619052 -0.31123811 0.86000001 2.0649655e-38
0.068800002 -0.31697148 0.86000007 1.1851867e-38
0.071257144 -0.31533337 0.86000001 1.194478e-38
-0.071605213 -0.30417749 0.86600012 2.0927674e-38
-0.069253206 -0.30478519 0.86128587 2.0281239e-38
-0.070239685 -0.29582924 0.86766672 2.3417326e-38
-0.066291906 -0.29417601 0.86413628 2.2676503e-38
0.067708582 -0.29147717 0.86700004 1.1112874e-38
-0.062768862 -0.28532824 0.86490005 1.963004e-38
-0.059023101 -0.28466073 0.86075008 7.3504494e-39
0.066631436 -0.28521389 0.86594743 1.1391222e-38
0.071175247 -0.28387335 0.86900002 1.806561e-38
-0.060942706 -0.27554336 0.86666673 2.054735e-38
-0.057203174 -0.27440065 0.86213344 8.5446514e-39
0.065764062 -0.2735661 0.86478955 1.1391228e-38
-0.06034667 -0.26783907 0.86800003 2.3228882e-38
-0.055442095 -0.26461682 0.86364007 9.1057509e-39
-0.04996191 -0.26127622 0.86000001 8.3595721e-39
0.064129569 -0.26457778 0.86422729 1.1941177e-38
-0.051814292 -0.25524649 0.86499995 7.7174355e-39
-0.046470437 -0.25449347 0.86149997 8.4510573e-39
0.059518483 -0.25364801 0.86080009 1.2402512e-38
0.06325835 -0.25462446 0.86494738 1.2127001e-38
-0.05107677 -0.24529718 0.86780006 7.351897e-39
-0.044988319 -0.24443103 0.86257571 8.2677268e-39
0.056161635 -0.24439818 0.86187506 1.2494696e-38
0.062031738 -0.24633668 0.86721057 1.2310672e-38
-0.043463871 -0.23582436 0.86629021 8.3592134e-39
-0.036627103 -0.23466577 0.8615455 8.8183993e-39
0.049415879 -0.23315558 0.86000007 1.2588353e-38
0.054908238 -0.23513807 0.86417639 1.2405374e-38
0.060416199 -0.23752668 0.86900008 1.240287e-38
-0.040943809 -0.22787715 0.86849999 8.5429068e-39
-0.034441162 -0.2251789 0.8652631 8.8183965e-39
-0.025904035 -0.22260444 0.86100006 9.2772348e-39
-0.018838096 -0.22032383 0.86000001 9.4616191e-39
0.038495239 -0.22032383 0.86000001 1.2406128e-38
0.045763906 -0.22331086 0.86110014 1.2406133e-38
0.053249691 -0.22561266 0.86543328 1.2497224e-38
-0.032267075 -0.21830112 0.86871433 8.9105753e-39
-0.02471792 -0.21499734 0.86495245 9.3697794e-39
-0.015460813 -0.21346284 0.86096293 9.6452775e-39
-0.0061800876 -0.21153769 0.86000001 1.001371e-38
0.00081904768 -0.21049525 0.86000001 1.038319e-38
0.025663491 -0.21158734 0.86000001 1.1946905e-38
0.035298206 -0.21359268 0.86046445 1.2315002e-38
0.044211902 -0.21532096 0.86489749 1.2499381e-38
0.05101715 -0.21730381 0.86866665 1.249759e-38
-0.022877401 -0.2069889 0.86820006 9.2779271e-39
-0.01472281 -0.20487431 0.86446339 9.7363843e-39
-0.00509782 -0.20482549 0.86155248 1.0104463e-38
0.004714286 -0.20445538 0.86087513 1.0473951e-38
0.014945042 -0.20464492 0.86052948 1.1209005e-38
0.024722034 -0.20491953 0.86132437 1.1579584e-38
0.034474425 -0.20482211 0.86424392 1.2223154e-38
0.042353135 -0.20531635 0.86836857 1.2315351e-38
-0.013754895 -0.19631447 0.86809099 9.7360382e-39
-0.0046047368 -0.19551377 0.86623675 9.9214958e-39
0.0049487757 -0.19545317 0.86597627 1.0564365e-38
0.014816737 -0.19510536 0.8644284 1.111609e-38
0.024525262 -0.19534229 0.86547488 1.1668179e-38
0.033911522 -0.19696079 0.86842877 1.2039472e-38
0.041380957 -0.19862857 0.86900002 1.2222408e-38
-0.00082761911 -0.18952477 0.86900002 9.4641106e-39
0.0055450476 -0.18720742 0.86900014 1.0565053e-38
0.014400573 -0.18820058 0.8690002 1.1024242e-38
0.023627831 -0.18874066 0.86877781 1.1393382e-38
-0.07388413 -0.3018994 0.87166679 2.2679392e-38
-0.072251432 -0.29897049 0.87200004 2.341769e-38
-0.068929523 -0.29066575 0.87200004 2.341769e-38
-0.067120887 -0.28478932 0.87338471 2.341769e-38
0.06885048 -0.2812086 0.87100005 8.9228815e-39
0.071651973 -0.2830103 0.87144458 1.7605744e-38
-0.065840922 -0.27466965 0.87334621 2.3141104e-38
0.06885048 -0.2778905 0.87100005 9.4638513e-39
0.071808428 -0.27436972 0.87166685 1.8251882e-38
-0.062155645 -0.26582327 0.87408346 2.0550998e-38
-0.058156192 -0.26169813 0.87233347 1.4265888e-38
0.068634108 -0.26400763 0.87400013 1.0658376e-38
0.071392827 -0.26626053 0.87445468 1.6220673e-38
-0.056345988 -0.25469542 0.87427789 9.1122459e-39
0.068215147 -0.25446349 0.87445462 1.1206852e-38
0.074420951 -0.25519013 0.8780002 1.0681018e-38
-0.054605402 -0.24490589 0.87486678 8.5576106e-39
0.066266984 -0.24478264 0.87455571 1.1758588e-38
-0.051557254 -0.23722349 0.87466675 7.5387854e-39
-0.047882386 -0.23331797 0.8718335 7.0742171e-39
0.063211985 -0.23487702 0.87380964 1.2128095e-38
-0.044844244 -0.22505437 0.87336367 7.7170824e-39
-0.038595241 -0.22160906 0.87150007 8.4517551e-39
0.057763658 -0.2234275 0.87266678 1.240253e-38
0.062226303 -0.22648507 0.87653857 1.2309611e-38
-0.042555906 -0.21777248 0.87610006 8.0855019e-39
-0.035519231 -0.21444051 0.87231249 8.5446738e-39
0.048388895 -0.2120816 0.87100005 1.2405743e-38
0.055247284 -0.21478772 0.87363642 1.2496498e-38
0.061041914 -0.21824573 0.87800002 1.2310686e-38
-0.033128325 -0.20624466 0.87430441 8.6361534e-39
-0.026335128 -0.203798 0.87171996 9.1857426e-39
0.047516052 -0.20513642 0.87205273 1.2499742e-38
0.053530883 -0.20576814 0.87591684 1.2405746e-38
-0.03093905 -0.19901335 0.87800002 8.7269197e-39
-0.02422381 -0.19649455 0.87478578 9.0935512e-39
-0.016858265 -0.19342679 0.87211782 9.6441872e-39
-0.008295238 -0.19162001 0.87100005 9.9200819e-39
0.029033335 -0.19162001 0.87100005 1.1760012e-38
0.036270652 -0.19296589 0.87135315 1.2039493e-38
0.045169897 -0.19499998 0.8746112 1.23157e-38
0.051936727 -0.19743387 0.87800014 1.2406113e-38
-0.013584926 -0.18575478 0.87437928 9.6442055e-39
-0.0050888038 -0.18518946 0.87256086 9.9222161e-39
0.0044494378 -0.18260841 0.87118202 1.0289199e-38
0.015223811 -0.18312517 0.87181497 1.1023546e-38
0.025241766 -0.18404178 0.8720302 1.1394841e-38
0.034781557 -0.18527532 0.87357503 1.1855461e-38
0.043766879 -0.18668687 0.87759107 1.2315348e-38
-0.012728679 -0.17848022 0.87800014 9.0938987e-39
-0.0049811811 -0.17700687 0.87752014 9.8296659e-39
0.0050786673 -0.17541152 0.87648588 1.0197023e-38
0.015032566 -0.17536815 0.87686121 1.0748401e-38
0.024634453 -0.17637509 0.87682164 1.1300493e-38
0.033304289 -0.17773804 0.8773573 1.1761842e-38
0.007525715 -0.16974668 0.87800002 1.0105185e-38
0.013379049 -0.1689105 0.87800014 1.0289931e-38
-0.071367621 -0.28630862 0.88160002 2.341769e-38
-0.069561906 -0.2857905 0.88000005 2.341769e-38
-0.068194292 -0.27025145 0.88400006 1.2306633e-38
0.07727506 -0.27249128 0.88580006 1.4833079e-38
0.082648098 -0.27071002 0.88550007 8.6696374e-39
-0.070194289 -0.26893622 0.88800001 6.1731485e-39
-0.065271288 -0.2650041 0.88157898 1.2812033e-38
0.076191649 -0.2643798 0.88061529 1.1888549e-38
0.083373643 -0.26375958 0.88093758 7.1905585e-39
-0.063809566 -0.25570855 0.88345832 1.3272915e-38
-0.059225403 -0.25366351 0.88000005 7.0915511e-39
0.07580395 -0.25436795 0.88007987 1.1238124e-38
0.08373569 -0.25509277 0.88081825 4.5147272e-39
-0.062430751 -0.24479556 0.88242865 1.9263792e-38
-0.058475815 -0.24357821 0.88133347 1.7050745e-38
0.069055878 -0.24267177 0.88066673 1.1022143e-38
0.075537436 -0.24528481 0.88310802 1.5291889e-38
0.083885565 -0.24575341 0.88525009 6.078439e-39
-0.060890481 -0.23933715 0.88800001 2.240673e-38
-0.055179857 -0.23462735 0.88116664 1.8243897e-38
0.068284199 -0.23448893 0.88080013 1.1390188e-38
0.07468155 -0.23563509 0.88484621 1.7229777e-38
0.080433339 -0.23960668 0.88900006 1.3537987e-38
-0.052777626 -0.22582147 0.88312501 2.0642057e-38
-0.048799623 -0.22186022 0.88040012 9.1932648e-39
0.066775136 -0.22428568 0.88123989 1.184973e-38
0.073430195 -0.22502233 0.88469237 1.4917004e-38
-0.051646668 -0.21928668 0.88900006 2.2850363e-38
-0.046081509 -0.21443051 0.88274193 8.3710656e-39
-0.039390478 -0.21036191 0.88000005 8.3620986e-39
0.059504766 -0.21120001 0.88000005 1.2219555e-38
0.064265899 -0.21552561 0.8846364 1.2311035e-38
0.072770961 -0.21916334 0.88849998 1.2973691e-38
-0.044211559 -0.2056113 0.88620687 9.2944414e-39
-0.037318371 -0.20329379 0.88190472 8.177343e-39
0.058254838 -0.20388667 0.8810001 1.2037342e-38
0.064156711 -0.20511363 0.88630778 1.2125565e-38
-0.042333335 -0.19896668 0.88900006 9.0278906e-39
-0.034907248 -0.19505505 0.88593936 7.8114346e-39
-0.026097978 -0.19200513 0.88037509 8.9098928e-39
0.049447622 -0.19024763 0.88000005 1.222315e-38
0.056176037 -0.19457288 0.88289982 1.2222068e-38
0.062152069 -0.19585727 0.88855559 1.1942608e-38
-0.033094499 -0.18577187 0.88844442 8.7491681e-39
-0.025334084 -0.18475607 0.88256764 8.0876613e-39
-0.018452065 -0.18451813 0.88066673 9.0017255e-39
0.039390478 -0.18019049 0.88000005 1.2222445e-38
0.046664566 -0.18281175 0.88073689 1.2223512e-38
0.05460842 -0.18497874 0.88476664 1.2223854e-38
-0.031326674 -0.17695336 0.88900012 1.0411244e-38
-0.024718659 -0.17569628 0.88770586 9.7636942e-39
-0.015792355 -0.17413975 0.8836059 7.3533333e-39
-0.0050791041 -0.17173369 0.88011771 8.8205587e-39
0.002514286 -0.17055239 0.88000005 9.5548797e-39
0.015923811 -0.17013334 0.88000005 1.0565802e-38
0.025980955 -0.17145036 0.88000011 1.0934576e-38
0.036023632 -0.17357863 0.88111109 1.1489542e-38
0.045734115 -0.17492983 0.88538462 1.1674304e-38
0.052935105 -0.17644669 0.88828576 1.1858327e-38
-0.021166667 -0.16510001 0.88900012 1.0966232e-38
-0.014612891 -0.16522262 0.88699973 5.8850346e-39
-0.005059592 -0.16438912 0.88523823 5.2367939e-39
0.0048630829 -0.1644053 0.88244748 7.443015e-39
0.015356416 -0.16432834 0.88141155 7.9940434e-39
0.025233068 -0.16483113 0.88305539 8.2702674e-39
0.035489097 -0.16481592 0.88614988 8.1805702e-39
0.043990403 -0.16587526 0.88824987 8.9192297e-39
-0.011853334 -0.15832667 0.88900006 4.8698176e-39
-0.0050800005 -0.15832669 0.88900006 4.1344036e-39
0.0060382993 -0.15813437 0.88792861 4.6850578e-39
0.014853675 -0.15854129 0.88750005 5.694891e-39
0.025559597 -0.15750746 0.88757145 7.1657051e-39
0.033946808 -0.15812314 0.8878572 5.9718394e-39
0.042333335 -0.15832667 0.88900006 6.3381094e-39
-0.012692382 -0.1321166 0.88842857 4.14846e-39
-0.0050771432 -0.13369954 0.88849992 5.0707849e-39
0.0038914923 -0.13282825 0.88833338 5.5317686e-39
0.013546667 -0.13123333 0.88900006 6.5441227e-39
0.021166667 -0.13123333 0.88900006 7.9306262e-39
-0.013386755 -0.12562598 0.88854539 3.8711487e-39
-0.0050725401 -0.12509349 0.88749981 3.7803894e-39
0.0050685708 -0.12502478 0.88699961 4.1484516e-39
0.015197569 -0.12496255 0.88655537 4.792763e-39
0.023214288 -0.12414826 0.88811111 5.3477333e-39
-0.011006667 -0.11853334 0.88900006 3.8711417e-39
-0.00470046 -0.11593496 0.889 3.0435334e-39
0.0051309522 -0.11558096 0.88868749 3.6867462e-39
0.015221272 -0.11501503 0.88799983 3.9637086e-39
0.025362382 -0.11496703 0.88761079 3.9647652e-39
0.031750005 -0.11260667 0.88900006 3.6889168e-39
-0.0042333337 -0.10922001 0.88900006 2.7629864e-39
0.0076200003 -0.10922001 0.88900006 2.6718838e-39
0.015748002 -0.10786535 0.88900006 3.5023647e-39
0.025682226 -0.10660946 0.88900006 3.8714948e-39
0.033327878 -0.10691091 0.88900006 3.780374e-39
-0.067885719 -0.25796574 0.89100003 6.8416366e-39
0.080614291 -0.23844859 0.89100003 7.0728802e-39
-0.06145497 -0.22370586 0.89800012 2.3141104e-38
-0.056393914 -0.22311556 0.8944 2.3232932e-38
-0.053694908 -0.21531028 0.89482343 1.2628296e-38
0.06812679 -0.21414109 0.89137495 1.2127368e-38
0.072911263 -0.21433955 0.89461929 1.1950544e-38
-0.050914288 -0.20552401 0.89099991 1.0691781e-38
-0.047830001 -0.20320432 0.8915 1.1151683e-38
0.068203226 -0.20290489 0.89237499 1.1941894e-38
0.073235169 -0.20518801 0.89600003 1.203663e-38
-0.044126149 -0.19488773 0.89254558 8.7538681e-39
-0.039543431 -0.19296516 0.89099997 8.2918025e-39
0.065888301 -0.19464621 0.89509529 1.1850413e-38
0.070984766 -0.19756001 0.89800012 1.2035894e-38
-0.043059289 -0.18757595 0.89525002 9.0304746e-39
-0.037451252 -0.18460271 0.89118737 9.3996018e-39
0.058551431 -0.1815943 0.89100003 1.185688e-38
0.062836371 -0.18515638 0.89521742 1.1669625e-38
-0.03377315 -0.17769088 0.89099997 1.0503437e-38
-0.02800286 -0.17153268 0.89099997 1.0411599e-38
0.056612279 -0.17417629 0.89311111 1.0758084e-38
0.062657364 -0.17448339 0.89711106 9.7504239e-39
-0.023638777 -0.16789594 0.89099997 1.0871882e-38
0.038185716 -0.16038001 0.89100003 5.0531299e-39
0.047059145 -0.16274887 0.8919 7.8161177e-39
0.054700527 -0.16608189 0.89493114 7.4555945e-39
0.063767284 -0.16815519 0.89709103 5.9891342e-39
-0.011031429 -0.15698573 0.89100003 4.4110045e-39
-0.0039091432 -0.15651928 0.89319992 3.21605e-39
0.0047797803 -0.15536192 0.89369226 3.7674246e-39
0.01582581 -0.1563683 0.8933 6.6143361e-39
0.021250002 -0.15639859 0.89250004 7.0738597e-39
0.038185716 -0.15868287 0.89100003 5.1456815e-39
-0.0085333344 -0.14080001 0.89600003 8.1139525e-39
-0.041051432 -0.13256191 0.89800006 6.2650036e-39
-0.034551617 -0.13221984 0.89800006 3.8740297e-39
-0.025111761 -0.1334095 0.89569569 4.4264959e-39
-0.016338859 -0.13562964 0.89340013 5.3488011e-39
-0.0076628579 -0.13878286 0.89400005 8.4805686e-39
0.0082288887 -0.13419208 0.89366674 7.007242e-39
0.016143493 -0.13234352 0.8926667 7.4693006e-39
0.025657143 -0.13085143 0.89800006 7.4689572e-39
-0.031888165 -0.12547567 0.89800012 3.7789446e-39
-0.025473641 -0.12466577 0.89543259 3.5041612e-39
-0.018270954 -0.12448607 0.89224994 3.5038011e-39
0.027715608 -0.12599225 0.89430767 6.6402574e-39
0.032166351 -0.12240446 0.89666671 6.5469701e-39
-0.023610113 -0.11686374 0.89769232 3.5023507e-39
-0.015390956 -0.11478785 0.89466691 3.0420914e-39
-0.0066673476 -0.11213265 0.89099997 2.3974451e-39
0.0046671433 -0.11158715 0.89100003 2.7647955e-39
0.034177732 -0.11455709 0.89200002 4.6105144e-39
-0.013383494 -0.10591556 0.89688885 2.5793238e-39
-0.0051339446 -0.10486352 0.89412826 2.5800301e-39
0.004947619 -0.10510111 0.89211792 2.2130482e-39
0.014925444 -0.1032762 0.89200002 2.6726111e-39
0.024891434 -0.10197001 0.89099991 3.9629842e-39
0.036180004 -0.1043743 0.89100009 3.8722277e-39
0.04410151 -0.10279799 0.89552939 4.241006e-39
-0.0019952385 -0.098030165 0.89766681 2.4881946e-39
0.0055800634 -0.096396588 0.89680016 2.3960074e-39
0.0153472 -0.095498957 0.89533341 2.5786064e-39
0.025535608 -0.095330149 0.89377797 3.3179623e-39
0.034910958 -0.095358193 0.89403349 3.5034437e-39
0.04359943 -0.095607057 0.89526677 3.8711403e-39
0.0094076199 -0.089800008 0.89800006 3.4072698e-39
0.015676444 -0.08841829 0.89786667 2.8548219e-39
0.026268449 -0.086098045 0.89746678 2.9506161e-39
0.035052508 -0.085490741 0.89766687 3.3190357e-39
0.042785659 -0.086787485 0.8975789 3.5027011e-39
0.029078096 -0.079537146 0.89800006 3.5948953e-39
0.034494609 -0.079252072 0.89800012 3.3190203e-39
-0.060924765 -0.2205305 0.90100002 2.2590453e-38
-0.059208576 -0.2205305 0.90100002 2.1856478e-38
-0.061060004 -0.21930002 0.90300006 2.1763205e-38
-0.057247214 -0.21660778 0.90100008 1.4099876e-38
0.075809047 -0.20157096 0.90450001 1.1946581e-38
0.068647623 -0.19221334 0.90100002 1.185152e-38
0.073365718 -0.19649571 0.90461546 1.176289e-38
0.068474226 -0.18478723 0.90246671 1.1488815e-38
0.072464868 -0.18360519 0.90700001 1.1128674e-38
0.067216061 -0.17645077 0.90314293 9.9380381e-39
0.073013149 -0.17795907 0.90620005 1.0496597e-38
0.058350481 -0.16218001 0.90100002 5.068589e-39
-0.0046202238 -0.15480565 0.90570587 2.8508619e-39
0.0050347368 -0.1526999 0.90478939 2.2980552e-39
0.015211862 -0.15377325 0.90572739 4.3180914e-39
0.022384763 -0.15497048 0.90400004 7.2578937e-39
-0.0025908996 -0.14244361 0.90644455 8.2976263e-39
0.0056461906 -0.14458431 0.90723377 7.1883851e-39
0.014068659 -0.1421717 0.90772736 7.8351838e-39
-0.040804289 -0.13358429 0.90200007 6.632354e-39
-0.034838673 -0.1350642 0.90100002 4.5168712e-39
-0.012013334 -0.13986953 0.90100002 7.4692823e-39
0.0065898411 -0.13812289 0.90266675 8.39271e-39
0.015765492 -0.13710184 0.90470588 8.5756285e-39
0.024869965 -0.13512667 0.90546155 7.6511625e-39
0.032646671 -0.13186239 0.90200001 7.0979929e-39
-0.051453341 -0.12149905 0.90800005 6.44649e-39
-0.043835338 -0.12479506 0.90370375 2.8573513e-39
-0.036151927 -0.12509538 0.90100014 3.4108894e-39
0.034922864 -0.12607768 0.90399998 7.0061644e-39
-0.051597461 -0.11645462 0.90800011 2.581842e-39
-0.044816751 -0.11547438 0.90486133 2.9498958e-39
-0.034364179 -0.11511665 0.90205562 3.0431718e-39
-0.025804427 -0.11326213 0.90135294 3.1332207e-39
-0.019736191 -0.1106943 0.90100002 2.6722131e-39
0.03771162 -0.11622858 0.90399998 5.3495143e-39
0.04106921 -0.11172128 0.90466678 4.7956133e-39
-0.043283429 -0.10677743 0.90710014 2.9495399e-39
-0.034489471 -0.10518705 0.90533364 2.9491741e-39
-0.02496054 -0.1049956 0.90370017 2.5811133e-39
-0.017143911 -0.103532 0.90236843 2.6718684e-39
-0.0094390484 -0.10039715 0.90100002 2.7640682e-39
0.045073338 -0.10732239 0.90150005 4.6108563e-39
-0.034590479 -0.098582864 0.90800011 2.8566212e-39
-0.025078097 -0.098582864 0.90800011 2.7651374e-39
-0.014492346 -0.095675699 0.90688908 2.9473791e-39
-0.0056376648 -0.094090939 0.90374202 2.764071e-39
0.0035131606 -0.091457933 0.90209091 2.8566268e-39
-0.011818415 -0.088493988 0.90800011 3.0392328e-39
-0.0051200734 -0.086098537 0.90753883 3.1317745e-39
0.0053735017 -0.084776476 0.90564728 3.0406621e-39
0.014983312 -0.083518572 0.90247846 2.7640808e-39
0.022596512 -0.082663178 0.90100002 2.6740516e-39
0.045351956 -0.082816899 0.90154546 3.410511e-39
0.051426988 -0.08073175 0.90500009 3.7803838e-39
0.0082152393 -0.076963812 0.90800005 3.4097978e-39
0.015516168 -0.075004883 0.90528971 3.1332179e-39
0.024820197 -0.075527772 0.90300012 2.8591393e-39
0.034500398 -0.074720301 0.90327597 3.2261254e-39
0.044738725 -0.075076006 0.90463424 3.3190329e-39
0.051369049 -0.074676909 0.90650004 3.6874524e-39
0.017974477 -0.06775105 0.90740007 3.5923982e-39
0.025286799 -0.06698525 0.90704566 3.4090761e-39
0.034417734 -0.066658072 0.90737969 3.409439e-39
0.044433054 -0.067947149 0.90770006 3.5019752e-39
0.07682237 -0.19498919 0.91399997 1.1674648e-38
0.076214634 -0.18698555 0.91378576 1.1311271e-38
-0.0072522229 -0.15253621 0.91350001 3.8646747e-39
0.019098097 -0.15104714 0.91150004 1.3789786e-39
0.022204526 -0.15237167 0.91425008 2.0221984e-39
-0.021761905 -0.14275905 0.91400003 6.7288615e-39
-0.014582995 -0.145338 0.91614282 7.0990733e-39
-0.005318942 -0.14737789 0.91266662 6.4511802e-39
0.0028888895 -0.14848889 0.91000003 4.6965961e-39
0.016028287 -0.14679798 0.91065216 4.6944227e-39
0.02336866 -0.14409162 0.91490912 5.617458e-39
0.025843238 -0.13858533 0.91060001 7.1873047e-39
0.037969213 -0.13187781 0.91300005 7.1891081e-39
0.04183048 -0.13071239 0.91500008 7.0979845e-39
0.0388254 -0.12458795 0.91266674 6.730288e-39
0.043416612 -0.12413798 0.91577774 6.7299279e-39
-0.060260005 -0.11091334 0.91700006 1.2254417e-38
-0.055195242 -0.11324803 0.91259998 6.1735129e-39
0.039000001 -0.11873334 0.91000003 5.8090492e-39
0.045874722 -0.11542138 0.91432279 5.7154186e-39
0.051526669 -0.11440668 0.91700006 6.1753219e-39
-0.061507624 -0.10504953 0.91699994 1.1426811e-38
-0.054894768 -0.10454962 0.91483343 3.1328507e-39
-0.047355086 -0.10367286 0.91138881 2.5811147e-39
-0.060260005 -0.098686673 0.91700006 1.0685621e-38
-0.054878909 -0.09690927 0.91671425 2.3052453e-39
-0.044966325 -0.095700935 0.91481823 2.4892778e-39
-0.034775078 -0.09388715 0.91283339 2.9491798e-39
-0.025192762 -0.093812577 0.91210002 3.2243191e-39
-0.018799048 -0.093411751 0.91099995 3.0402894e-39
-0.04384134 -0.088905342 0.91699994 2.2137629e-39
-0.034933332 -0.088424996 0.91699988 2.7662094e-39
-0.024100984 -0.085895881 0.91663641 3.5931086e-39
-0.015114145 -0.084828362 0.91340744 3.3172476e-39
-0.0053810477 -0.081373058 0.91090006 3.5020004e-39
0.0017333335 -0.080600008 0.91000003 3.5027095e-39
-0.024278669 -0.079124004 0.917 3.6871133e-39
-0.013536667 -0.075543337 0.91699994 3.5034269e-39
-0.0052319048 -0.074963428 0.9152779 3.5027179e-39
0.0043431642 -0.074017525 0.91282153 3.594189e-39
-0.011935557 -0.068411112 0.91700006 4.1470111e-39
-0.0049488894 -0.067149639 0.91699994 3.8722207e-39
0.0054859091 -0.064726889 0.91555899 3.8711375e-39
0.014840638 -0.063517049 0.91274095 3.5938247e-39
0.024512265 -0.062259406 0.911125 3.2254009e-39
0.035304088 -0.061809935 0.91042858 3.4094376e-39
0.044745028 -0.063738689 0.91127777 4.1459181e-39
0.0096066669 -0.058513336 0.91700006 3.4101439e-39
0.015886478 -0.055780102 0.91659993 3.1331997e-39
0.024523839 -0.055643145 0.91500014 3.1335542e-39
0.034839451 -0.055737231 0.91452801 3.5941694e-39
0.042573579 -0.056400362 0.91462499 4.3313827e-39
0.026345557 -0.047887783 0.91699994 3.3175839e-39
0.034347713 -0.047391977 0.91585726 4.5165027e-39
0.041737147 -0.04956286 0.91300005 4.7016058e-39
0.036831435 -0.1620943 0.9262501 5.9711205e-39
0.042377148 -0.16244572 0.92700005 6.7980071e-39
-0.013415239 -0.15259811 0.92350006 6.5433618e-39
-0.0097114295 -0.15626572 0.92700005 3.4973033e-39
0.026449407 -0.15548524 0.92562509 4.5031875e-39
0.036062934 -0.15616588 0.92678577 6.2477088e-39
0.04227905 -0.15665811 0.92700005 7.9000275e-39
-0.022590689 -0.14598139 0.92400008 6.8224934e-39
-0.015829049 -0.14899716 0.92300004 7.743707e-39
0.026289633 -0.14667524 0.92344457 4.0490547e-39
0.030900002 -0.14037429 0.92700005 6.6359217e-39
0.044685718 -0.1305524 0.92000002 7.3742e-39
0.046146035 -0.12704764 0.92000002 7.0983376e-39
-0.061333336 -0.11215238 0.92000002 1.1979628e-38
-0.063961908 -0.10251429 0.92000002 1.1610145e-38
-0.062387154 -0.09467154 0.92262506 1.1611575e-38
-0.05535268 -0.092396259 0.92068756 3.2257456e-39
-0.049942862 -0.091123819 0.92000002 2.397071e-39
-0.064448573 -0.089168578 0.92700005 1.1333928e-38
-0.053588502 -0.084585086 0.92480004 2.6707922e-39
-0.045633171 -0.084362298 0.92065227 2.1208596e-39
-0.035047621 -0.083588593 0.92000002 2.949886e-39
-0.028330162 -0.082069844 0.92000002 3.8704354e-39
-0.051647145 -0.07813286 0.92700005 2.3913551e-39
-0.044474293 -0.076059714 0.92538476 2.0283053e-39
-0.035152491 -0.075564303 0.92266667 2.7644312e-39
-0.024601446 -0.07482186 0.92151624 3.7796607e-39
-0.017535811 -0.074524388 0.92060006 3.778939e-39
-0.042377144 -0.069745719 0.92700005 2.4867597e-39
-0.033780903 -0.066957764 0.92700005 2.1201408e-39
-0.024689285 -0.06524422 0.92580551 2.9509846e-39
-0.015257636 -0.064561769 0.92214811 4.3310492e-39
-0.0055562975 -0.062373452 0.92100006 3.9647792e-39
0.00087619055 -0.061333336 0.92000002 3.9640562e-39
-0.030900002 -0.059151433 0.92700005 2.030815e-39
-0.023584904 -0.057637963 0.92700011 2.5803888e-39
-0.014732109 -0.054895926 0.92542845 2.9488308e-39
-0.0052855825 -0.054606128 0.92480546 2.9506175e-39
0.0051383949 -0.054277666 0.92137158 2.9502531e-39
0.012273334 -0.052598573 0.92049998 3.2250436e-39
-0.014123017 -0.04678271 0.92683339 2.8569729e-39
-0.0052969316 -0.046780001 0.92677784 2.6729488e-39
0.0054138782 -0.045201834 0.92549998 3.0402852e-39
0.015145072 -0.045437582 0.92396432 3.3161588e-39
0.023645004 -0.044432949 0.92241663 3.5941792e-39
0.031611431 -0.043026671 0.92200005 4.6079724e-39
0.0097114295 -0.039728574 0.92700005 3.3194042e-39
0.016168782 -0.038514186 0.92611122 3.4087244e-39
0.022359621 -0.039264765 0.92440015 3.8707591e-39
-0.014022024 -0.16222584 0.93462503 5.1474863e-39
0.046721432 -0.1618643 0.93000019 7.9943923e-39
-0.020426191 -0.15275477 0.93250006 1.004571e-38
-0.015748573 -0.15610218 0.9327274 8.3843961e-39
0.029228574 -0.15411429 0.93000007 3.217129e-39
0.032771427 -0.15300715 0.93000019 3.8607006e-39
0.046019055 -0.15356934 0.93100017 8.0854991e-39
0.029228574 -0.14702858 0.93000007 3.4076524e-39
0.035366926 -0.1458974 0.93187869 4.4192708e-39
0.044621062 -0.14519854 0.93492591 6.1623403e-39
0.050757147 -0.14692858 0.93500006 9.3790742e-39
0.036136515 -0.13891399 0.93300009 7.0979635e-39
0.040836763 -0.13784325 0.93620008 7.0050532e-39
-0.062379591 -0.084522456 0.93000031 1.1609775e-38
-0.058752391 -0.084142864 0.93000019 9.6729195e-39
-0.062995076 -0.074910484 0.93317658 1.1425041e-38
-0.055442326 -0.074080229 0.93231249 8.5676747e-39
-0.048123814 -0.072333336 0.93000007 1.9350474e-39
-0.062169217 -0.068118416 0.93700004 1.1425755e-38
-0.054231305 -0.066034019 0.9363811 1.0411953e-38
-0.045299448 -0.065260954 0.93262076 2.3023628e-39
-0.037006728 -0.063927807 0.93068773 2.3041621e-39
-0.051579624 -0.056933906 0.9370001 4.6998219e-39
-0.044351548 -0.055215247 0.93688256 2.7636941e-39
-0.034804501 -0.054969892 0.93362075 2.2123252e-39
-0.025544893 -0.05309971 0.93068194 2.6718628e-39
-0.018600002 -0.051371433 0.93000007 2.7637095e-39
-0.04313175 -0.04908096 0.93700004 3.7857465e-39
-0.034406245 -0.048287731 0.93700016 1.7520743e-39
-0.024581289 -0.046838529 0.93505019 2.4882114e-39
-0.016106054 -0.043360073 0.93192881 2.6722369e-39
-0.0053142863 -0.042514291 0.93000025 3.0410054e-39
0.0035428572 -0.041628573 0.93000007 3.2253799e-39
-0.01386075 -0.037635993 0.93464297 2.5785994e-39
-0.0048575834 -0.03693619 0.93376911 2.2126867e-39
0.0051909965 -0.035650738 0.93242413 2.6725873e-39
0.013663811 -0.03620648 0.93180019 3.039925e-39
-0.021531429 -0.17135429 0.94200003 8.8439253e-39
-0.018840002 -0.17135429 0.94200003 4.146288e-39
-0.022166073 -0.16523586 0.94037521 6.4497256e-39
-0.017268166 -0.16551553 0.94014311 4.7848275e-39
-0.020612381 -0.15773049 0.94100004 9.7684152e-39
-0.017924763 -0.15862572 0.94100004 1.0139354e-38
0.046868257 -0.14119905 0.94033337 6.0787795e-39
0.051164292 -0.14182144 0.94250005 8.4646905e-39
0.046735715 -0.13750271 0.94366664 6.6352001e-39
0.051381432 -0.13881858 0.94650006 7.7336093e-39
-0.057116192 -0.063561909 0.94000006 1.188636e-38
-0.052371435 -0.05774286 0.94000006 5.8040101e-39
-0.049238097 -0.05729524 0.94000006 2.4842443e-39
-0.041735243 -0.047467049 0.94040006 2.3009419e-39
-0.03432361 -0.044183884 0.94135731 1.6595129e-39
-0.025529288 -0.041874047 0.94050026 2.1187016e-39
-0.031600002 -0.03882286 0.94800007 2.3048753e-39
-0.024273403 -0.037236806 0.94378585 2.3952801e-39
-0.016658669 -0.034749717 0.94040012 2.5800413e-39
-0.0085133342 -0.033606667 0.94099998 2.4885505e-39
0.051571433 -0.13661906 0.95000005 6.3586104e-39
-0.041057147 -0.044706669 0.95800006 2.3034348e-39
-0.037285954 -0.04273786 0.95475006 2.0279241e-39
0.028283812 -0.041057147 0.95800006 3.688523e-39
0.032298286 -0.041787047 0.95800012 4.6086997e-39
-0.029857146 -0.037095241 0.95000005 2.2137573e-39
-0.010036191 -0.031933334 0.95800006 2.8562611e-39
-0.0045522619 -0.031178216 0.95587504 2.3967206e-39
0.0041963812 -0.030453527 0.95740002 2.8569855e-39
0.014971598 -0.032034457 0.95782369 3.4094432e-39
0.024948273 -0.034975111 0.95731825 4.056242e-39
0.031527836 -0.037204877 0.95800006 4.7934539e-39
0.0063866675 -0.028283812 0.95800006 3.3172364e-39
0.015510479 -0.02828381 0.95800012 3.6867504e-39
0.022809526 -0.028283812 0.95800006 4.4239371e-39
0.048608575 -0.13665429 0.96300006 7.1890843e-39
0.051750716 -0.13408501 0.96600002 6.8210319e-39
-0.043044291 -0.044581436 0.96850002 2.1194205e-39
-0.039682861 -0.041528575 0.96900004 2.3034404e-39
0.037783716 -0.043469619 0.9629001 5.2537062e-39
0.043303747 -0.044578906 0.96738458 4.9774752e-39
-0.041528575 -0.039682861 0.96900004 2.3952815e-39
-0.033592001 -0.036360573 0.96899998 2.4885547e-39
-0.025518101 -0.033358097 0.96850002 2.5814706e-39
-0.014203176 -0.03115556 0.9653334 2.9480909e-39
-0.0045761904 -0.03020286 0.96100003 2.7651458e-39
0.0027457145 -0.03020286 0.96100003 3.2246862e-39
0.017389525 -0.032033335 0.96100003 3.7775125e-39
0.025077526 -0.030935049 0.96100008 4.333189e-39
0.035948258 -0.034036864 0.964037 5.5306574e-39
0.042172506 -0.036639646 0.967875 5.2533544e-39
-0.025609287 -0.026301431 0.96899998 2.9491924e-39
-0.013484348 -0.025083354 0.96613026 3.2236044e-39
-0.0045880387 -0.024764651 0.96319997 3.0402908e-39
0.0044231485 -0.024427043 0.96239132 3.317228e-39
0.014501485 -0.02404031 0.96359986 3.6860161e-39
0.024848573 -0.024613734 0.96333331 4.4246574e-39
0.033650205 -0.02557347 0.96728563 5.4384576e-39
-0.012920002 -0.016611429 0.96899992 3.5938345e-39
-0.0043468373 -0.015008063 0.9678213 3.5016333e-39
0.0045956196 -0.014710667 0.96573317 3.6863749e-39
0.014733253 -0.014727381 0.96674985 4.2384808e-39
0.024675552 -0.015251853 0.96755534 4.976392e-39
0.030915715 -0.017995715 0.96900004 5.2547838e-39
-0.0018457145 -0.0073828571 0.96900004 3.8714906e-39
0.0046142861 -0.0073828581 0.96899998 3.9633331e-39
0.011628001 -0.007567429 0.96900004 4.3306849e-39
0.05652361 -0.1436967 0.97521436 1.0025193e-38
0.060480956 -0.14143239 0.97700006 1.1033568e-38
0.0565993 -0.13453239 0.97420019 7.276622e-39
0.061308045 -0.13450551 0.97700012 1.0669484e-38
0.056287713 -0.12699628 0.97463644 6.8199599e-39
0.061101273 -0.12871587 0.97700012 9.020395e-39
0.047211431 -0.050914288 0.97200006 5.070017e-39
-0.051176198 -0.041871436 0.97700012 2.1186862e-39
-0.047357079 -0.043506198 0.97492868 2.3027384e-39
-0.037028573 -0.041657146 0.97200006 2.211965e-39
0.0480115 -0.044865865 0.97376931 5.4384491e-39
0.051045239 -0.046400003 0.97450006 5.9927005e-39
-0.044317793 -0.035615642 0.97473687 2.5800245e-39
-0.036358271 -0.034101866 0.97234792 2.580393e-39
-0.024624001 -0.031289142 0.97200006 2.7651444e-39
-0.019440001 -0.031474285 0.97200006 2.6729404e-39
0.045837086 -0.034694586 0.97468758 5.2540663e-39
-0.041871428 -0.028224446 0.97700012 3.1310557e-39
-0.034387242 -0.025331544 0.97364014 3.0399405e-39
-0.024667565 -0.024340842 0.972 3.3168791e-39
-0.018911025 -0.024200818 0.97200012 3.0406439e-39
0.038215958 -0.023623575 0.97275007 5.8972847e-39
0.042906508 -0.025555082 0.97583342 5.5292225e-39
-0.031914923 -0.01828032 0.97600007 3.3168987e-39
-0.024687201 -0.015274922 0.97333348 3.5012759e-39
-0.016300192 -0.013334857 0.97240019 3.5938219e-39
-0.0083314292 -0.011108572 0.97200006 3.5941666e-39
0.026845716 -0.010182858 0.97200006 4.9781843e-39
0.034419663 -0.014929697 0.97427291 5.7150402e-39
0.040010478 -0.018609524 0.97700006 5.8979938e-39
-0.021400955 -0.0083742859 0.97700006 3.8700402e-39
-0.014067736 -0.0050820569 0.97416008 3.962603e-39
-0.005161996 -0.0041011344 0.97285718 4.0551588e-39
0.0046286993 -0.0027772705 0.97213346 4.1469985e-39
0.015467734 -0.0040397714 0.9735201 4.6079934e-39
0.024840498 -0.0049642236 0.97539157 5.2533362e-39
0.032334048 -0.0067459526 0.97700012 5.9901838e-39
-0.012654476 0.0024192384 0.97700018 4.1469999e-39
-0.0049182316 0.0026585034 0.97700024 4.4225176e-39
0.0046476196 0.0027904764 0.97600013 4.6072634e-39
0.015086917 0.0036002903 0.97673905 4.8845719e-39
0.023261908 0.00093047624 0.97700012 5.1618665e-39
0.05777448 -0.16165563 0.98800004 9.9330033e-39
0.063043818 -0.16090289 0.98800009 5.5281379e-39
0.057139244 -0.15456288 0.98353326 1.0392186e-38
0.06204715 -0.15511744 0.98709995 5.42769e-39
0.058800004 -0.14840001 0.98000002 1.1033243e-38
0.063259199 -0.14428675 0.98230779 8.0901739e-39
0.066048265 -0.13452271 0.98226666 7.9079392e-39
0.070933335 -0.13200524 0.98650002 3.2279345e-39
0.058600955 -0.12235811 0.98450011 6.7266895e-39
0.064724043 -0.12453875 0.98263997 7.8225679e-39
0.070810482 -0.12542272 0.98385727 4.0551658e-39
0.058280006 -0.1174981 0.98700011 6.2689329e-39
0.064447299 -0.11585715 0.98695666 5.8954798e-39
0.071191847 -0.11677525 0.98542869 7.4624006e-39
0.061161909 -0.10820953 0.98800004 6.5480239e-39
-0.055819578 -0.052476931 0.9858889 7.2855651e-39
-0.049618099 -0.051490478 0.98300004 7.5653806e-39
-0.060976196 -0.041276194 0.98500007 1.1793437e-38
-0.055617813 -0.045219444 0.98233324 5.0650017e-39
-0.048533335 -0.04946667 0.98000002 4.0473339e-39
0.053321909 -0.042723808 0.98222238 6.6377154e-39
-0.061485719 -0.035227217 0.98457152 1.2162926e-38
-0.055182092 -0.034602139 0.98199987 4.1448307e-39
-0.048300002 -0.032900002 0.98000002 2.488196e-39
0.049000002 -0.032200001 0.98000002 5.7154172e-39
0.053578932 -0.034622617 0.98262489 7.1905277e-39
-0.061161909 -0.029169526 0.98800004 1.2436614e-38
-0.054588921 -0.026130175 0.98552632 3.5001815e-39
-0.045367666 -0.024729347 0.98134595 2.7633494e-39
-0.03826667 -0.021466669 0.98000002 3.0402894e-39
0.047689326 -0.024577213 0.98178566 5.8072359e-39
0.053037666 -0.026216537 0.98645455 7.3741972e-39
-0.052505147 -0.018254478 0.98800004 2.6700663e-39
-0.044881232 -0.015134447 0.98460007 2.9480923e-39
-0.03519294 -0.014089921 0.98099983 3.4090719e-39
-0.028311115 -0.010888889 0.98000002 3.6853057e-39
0.037333336 -0.011200001 0.98000002 6.082371e-39
0.044099893 -0.015199673 0.98349994 5.62213e-39
-0.041518778 -0.0065829935 0.98757148 3.5019836e-39
-0.034740496 -0.0046905903 0.98584002 3.8693438e-39
-0.025446232 -0.0045225797 0.98337495 3.8707661e-39
-0.018865336 -0.0024272383 0.9806 3.5963554e-39
0.028000001 -0.00093333342 0.98000002 5.4384562e-39
0.035653278 -0.0036905881 0.9834705 5.8983581e-39
0.041924663 -0.0063775666 0.98800004 5.6214097e-39
-0.033471026 0.0017474832 0.98800004 3.8700711e-39
-0.024802811 0.0039473809 0.98635006 4.2381151e-39
-0.016089236 0.0057979999 0.98189992 4.3310422e-39
-0.0043272735 0.0072121215 0.9799999 4.6994562e-39
0.004666667 0.0074666664 0.97999996 4.6079808e-39
0.014266668 0.0081333341 0.98000008 4.8838502e-39
0.025500607 0.005187273 0.98163623 5.4377429e-39
0.03377692 0.0037056585 0.9867059 6.1745919e-39
-0.021641906 0.010350477 0.98800004 4.3317302e-39
-0.013488686 0.01446941 0.9861601 4.5154279e-39
-0.0046877149 0.015003524 0.98416662 4.6083452e-39
0.0046875561 0.015003492 0.98413348 4.7923721e-39
0.015003017 0.015011746 0.98455566 5.2519139e-39
0.024569375 0.013300302 0.98615789 5.5295882e-39
0.031051431 0.010350477 0.98800004 6.0841913e-39
-0.010350477 0.021641906 0.98800004 4.5157838e-39
-0.0039520003 0.022771049 0.98800004 4.7005366e-39
0.0035756193 0.02295924 0.98800004 5.0689562e-39
0.010350477 0.021641906 0.98800004 6.1688255e-39
0.057334866 -0.16651733 0.9934001 9.2897792e-39
0.065406747 -0.16435121 0.99307704 5.8972595e-39
0.071000002 -0.16188002 0.99400002 6.6330575e-39
0.067020126 -0.15533432 0.99276489 4.8849222e-39
0.072239049 -0.15655096 0.99475002 6.1756611e-39
0.067713723 -0.1454844 0.99580002 3.8671662e-39
0.068898097 -0.13874 0.99100006 5.3351076e-39
0.072614446 -0.13639192 0.9945001 4.0587629e-39
0.058516197 -0.11231335 0.99100012 5.8072471e-39
0.058516193 -0.10853811 0.99100006 5.6224957e-39
-0.061347622 -0.044359051 0.99100006 1.1701604e-38
0.05602191 -0.048425719 0.99700004 4.8903313e-39
-0.063618101 -0.037031431 0.99700004 1.2070376e-38
-0.062165402 -0.024610478 0.99400008 1.1886699e-38
-0.058231592 -0.022976987 0.99150008 5.9901614e-39
0.055212859 -0.023123335 0.99100006 8.0184652e-39
-0.061626196 -0.018960476 0.99550003 1.1612279e-38
-0.056038134 -0.014490477 0.99315995 5.6170797e-39
0.04813429 -0.012269525 0.99100006 6.177096e-39
0.052401125 -0.015754845 0.99400014 7.374549e-39
-0.052472562 -0.0053276792 0.99493748 2.8566086e-39
-0.045439146 -0.0039859265 0.99166679 3.3179581e-39
0.045719821 -0.0037804171 0.99231261 6.174938e-39
0.050324764 -0.007596191 0.99700004 7.0986837e-39
-0.050324764 0.00094952388 0.99700004 3.1339269e-39
-0.04377003 0.0035154624 0.99523532 3.6856448e-39
-0.035457991 0.005875451 0.99133343 3.7789376e-39
-0.027748002 0.0077392384 0.99100012 4.3285227e-39
0.037044529 0.0068426197 0.99100012 5.8086764e-39
0.043833807 0.0040729525 0.99399996 6.0834654e-39
-0.03456445 0.012450415 0.99519998 4.0562476e-39
-0.025341764 0.014860661 0.99399996 4.4232252e-39
-0.01863957 0.016408747 0.99209106 4.607255e-39
0.02687126 0.018114895 0.99154562 5.6235621e-39
0.034120198 0.014100352 0.99368429 6.0838256e-39
0.040829528 0.010444762 0.99700004 5.8065254e-39
-0.022788573 0.021839049 0.99700004 4.5147146e-39
-0.014514366 0.025242066 0.99374986 4.5157852e-39
-0.0052281278 0.027267879 0.99180025 4.7016058e-39
0.0054771435 0.027130609 0.99140012 5.0693093e-39
0.015291464 0.025659926 0.99265498 5.3455403e-39
0.024634767 0.024743443 0.99483341 5.8068687e-39
0.031334288 0.021839049 0.99700004 6.1756484e-39
-0.0032283813 0.0317141 0.99700004 4.9767577e-39
0.0045850798 0.032727148 0.99599999 5.0693121e-39
0.011964001 0.032093909 0.99700004 5.5284994e-39
0.062090479 -0.18054001 1.003 6.4446557e-39
0.056462064 -0.17511478 1.0020001 8.9224457e-39
0.064208724 -0.17456616 1.0016155 6.0794984e-39
0.066818818 -0.16895074 1.00225 5.3473045e-39
0.069523811 -0.15142858 1 4.8867173e-39
0.073830351 -0.15242708 1.0030001 6.0830997e-39
0.069047622 -0.14761905 1 2.6779977e-39
0.073762976 -0.14533408 1.0027648 5.5302888e-39
0.075238101 -0.13809524 1 6.1770876e-39
0.056171723 -0.052724291 1.0065001 5.9912796e-39
0.060480002 -0.052800003 1.008 6.6341407e-39
-0.06397371 -0.013731943 1.0025386 1.068962e-38
-0.060000002 -0.010476192 1 1.0045343e-38
0.055322386 -0.011445715 1.0015 7.5575305e-39
-0.06222396 -0.0058138468 1.005154 1.0966576e-38
-0.057171959 -0.003710371 1.0023333 8.2860558e-39
0.052223574 -0.0054861908 1.0015 7.7426126e-39
-0.061080005 0.0015993653 1.0073334 1.1794544e-38
-0.054032959 0.0044977153 1.0041002 5.7096242e-39
-0.046482503 0.0073898816 1.001125 3.2271946e-39
0.047544003 0.0074480004 1.0024 7.2809338e-39
0.050526671 0.0028619049 1.001 7.8366117e-39
-0.052496333 0.011925443 1.0074286 5.6131574e-39
-0.044736817 0.014027162 1.0049567 3.8718395e-39
-0.036058001 0.016977811 1.0015 4.1477047e-39
-0.029523812 0.01809524 1 4.5153788e-39
0.037481092 0.0167649 1.0017143 5.9909083e-39
0.04432191 0.013712064 1.0043334 6.6359288e-39
-0.042546354 0.021433335 1.0076667 4.5157768e-39
-0.035139833 0.024613028 1.0048931 3.7792837e-39
-0.025561227 0.025834968 1.0019288 4.331045e-39
-0.01809524 0.028571431 1 4.8831398e-39
0.028175922 0.027903814 1.0004287 6.2681874e-39
0.035026308 0.024639187 1.0041906 6.2678511e-39
0.041739523 0.021590002 1.0074999 6.5437303e-39
-0.032938417 0.032939054 1.0073334 4.2356012e-39
-0.024313074 0.03433498 1.0064547 3.7793034e-39
-0.014333181 0.035349336 1.0030401 4.2395556e-39
-0.0051495717 0.036146816 1.0013502 5.0686072e-39
0.0049093044 0.03745392 1.0004616 5.2537076e-39
0.014880287 0.036056574 1.0015001 5.8047304e-39
