# .PCD v0.7 - Point Cloud Data file format
VERSION 0.7
FIELDS x y z rgb
SIZE 4 4 4 4
TYPE F F F F
COUNT 1 1 1 1
WIDTH 558
HEIGHT 1
VIEWPOINT 0 0 0 1 0 0 0
POINTS 558
DATA ascii
-0.27189818 -0.17318483 0.46899995 1.0844544e-38
-0.26835623 -0.17298958 0.46884206 1.0936013e-38
-0.2731396 -0.16614565 0.46875 9.0081939e-39
-0.27420044 -0.18198939 0.47387987 1.1581772e-38
-0.26522374 -0.18197405 0.47551277 1.1486341e-38
-0.255575 -0.18172354 0.47830003 1.1393759e-38
-0.28064668 -0.1761362 0.47300002 1.0295344e-38
-0.27459684 -0.17656682 0.47110215 1.0844548e-38
-0.26475689 -0.17475457 0.47169095 1.1027132e-38
-0.25535616 -0.17469896 0.47527555 1.0475765e-38
-0.24840556 -0.17482786 0.47841865 1.0109138e-38
-0.27177095 -0.16611567 0.47075859 9.1900713e-39
-0.26510057 -0.16481256 0.47199324 1.0200979e-38
-0.25585797 -0.16534254 0.47611925 1.1213691e-38
-0.2493152 -0.16809072 0.47830775 1.1855803e-38
-0.27134869 -0.15481248 0.47457141 1.0567595e-38
-0.26499239 -0.15534051 0.47495148 1.0844191e-38
-0.25717315 -0.15502419 0.47785741 1.1302659e-38
-0.28264791 -0.14308599 0.47562784 9.3730094e-39
-0.27491751 -0.14388847 0.47633371 1.0107703e-38
-0.26500261 -0.14510168 0.4774431 1.0659435e-38
-0.25808683 -0.14610845 0.47814998 1.1118631e-38
-0.28307188 -0.13545415 0.47756866 9.1882496e-39
-0.27534318 -0.1366664 0.47679996 9.831475e-39
-0.26703376 -0.13880591 0.47880003 1.0292459e-38
-0.26499739 -0.19412963 0.48775533 1.7009771e-38
-0.25572568 -0.19237313 0.48736379 1.730186e-38
-0.24514763 -0.19137393 0.48857155 1.1667491e-38
-0.23953241 -0.19078764 0.48900002 1.1941552e-38
-0.26452485 -0.18719822 0.48097864 1.5643065e-38
-0.25476345 -0.18619135 0.48249248 1.2128828e-38
-0.24475528 -0.18444958 0.48464751 1.1117166e-38
-0.2383509 -0.18423684 0.48802185 1.0658349e-38
-0.2435413 -0.17461473 0.48235038 1.1396992e-38
-0.23818225 -0.17598218 0.48796383 1.1945152e-38
-0.25212485 -0.16217387 0.48045826 1.1397708e-38
-0.24465939 -0.1651001 0.48248991 1.1854027e-38
-0.23841748 -0.16460066 0.48758939 1.1762202e-38
-0.26011431 -0.15314287 0.48000002 1.1303376e-38
-0.25252098 -0.15505083 0.48011914 1.1395924e-38
-0.24506202 -0.15514512 0.48379913 1.1578514e-38
-0.23850107 -0.15563418 0.48841524 1.1760763e-38
-0.27256668 -0.14063525 0.48100004 1.0109514e-38
-0.26262861 -0.14240001 0.48000002 1.0843832e-38
-0.25421619 -0.14449133 0.48105857 1.1211181e-38
-0.2450804 -0.14506975 0.48550323 1.1578507e-38
-0.23959096 -0.14485823 0.48886669 1.1578163e-38
-0.28122607 -0.1336536 0.48005554 9.2829493e-39
-0.27384171 -0.1345527 0.48154917 1.0015491e-38
-0.26442617 -0.1346952 0.4812665 1.056652e-38
-0.2549988 -0.13493237 0.48275027 1.1118977e-38
-0.24564026 -0.13517813 0.4867191 1.1303371e-38
-0.23947032 -0.13608174 0.48899999 1.148704e-38
-0.28496233 -0.12162802 0.48625001 8.8198146e-39
-0.27277365 -0.12435459 0.48520449 9.6478096e-39
-0.26471284 -0.12528086 0.48404029 1.0199529e-38
-0.25504568 -0.12511149 0.48633102 1.0750915e-38
-0.24637607 -0.12614925 0.48869303 1.1210449e-38
-0.23984288 -0.1299343 0.48900002 1.1669284e-38
-0.29122669 -0.11099525 0.48900005 8.2666968e-39
-0.28359309 -0.11487591 0.48712707 8.8191055e-39
-0.27486145 -0.11671242 0.4856478 9.2793704e-39
-0.26447663 -0.11489166 0.48703709 9.8314722e-39
-0.25606352 -0.11619975 0.48867023 1.038393e-38
-0.24729431 -0.11922286 0.48900002 1.1209362e-38
-0.29169244 -0.10913239 0.48900002 8.5421991e-39
-0.28602129 -0.10960287 0.48833334 8.5432417e-39
-0.27818671 -0.10758002 0.48900002 8.9116613e-39
-0.26712042 -0.10930981 0.48900008 9.3719276e-39
-0.25940287 -0.10851143 0.48900002 1.0383196e-38
-0.25342399 -0.20208874 0.49738103 1.6081733e-38
-0.2466844 -0.20217822 0.49826327 1.7761018e-38
-0.23693156 -0.20093621 0.49877781 1.2033739e-38
-0.27254003 -0.19809924 0.49220005 1.4701639e-38
-0.25324783 -0.19721468 0.49302942 1.886736e-38
-0.24515656 -0.19674976 0.49375015 1.3884152e-38
-0.23546606 -0.19477446 0.49594551 1.1482727e-38
-0.23364258 -0.18523332 0.49405882 1.0933144e-38
-0.22942448 -0.18431982 0.49820009 1.1944419e-38
-0.2335266 -0.17477557 0.49356022 1.1943341e-38
-0.22860287 -0.17317878 0.49817652 1.1851141e-38
-0.23322865 -0.16512497 0.49276289 1.1942992e-38
-0.22849411 -0.16570945 0.49780941 1.1759313e-38
-0.23355292 -0.15461501 0.49287286 1.1943703e-38
-0.22936341 -0.15446174 0.49724996 1.1851148e-38
-0.23422371 -0.14499085 0.49307045 1.1944427e-38
-0.22847605 -0.14507544 0.49862489 1.2034829e-38
-0.24126668 -0.13206667 0.49000001 1.1671436e-38
-0.23469129 -0.13483883 0.49414578 1.1760763e-38
-0.22913921 -0.13593635 0.49857152 1.1760404e-38
-0.24270605 -0.12361184 0.49125853 1.1302997e-38
-0.23576555 -0.12530768 0.49578249 1.1669279e-38
-0.22954002 -0.12974001 0.49900001 1.1850446e-38
-0.29260001 -0.11246667 0.49000001 8.5425579e-39
-0.28700003 -0.11060001 0.49000001 8.3592288e-39
-0.27268893 -0.11091112 0.49000001 9.5545013e-39
-0.25256857 -0.11378204 0.49059984 1.056833e-38
-0.24495657 -0.11471958 0.49266678 1.1027144e-38
-0.23736693 -0.1157503 0.49656376 1.1394129e-38
-0.29209176 -0.10421366 0.49315229 8.6347185e-39
-0.28509867 -0.10484044 0.49234766 8.6350842e-39
-0.27488062 -0.10440792 0.49235246 9.0034968e-39
-0.26484084 -0.10456609 0.49178597 9.5548881e-39
-0.25490549 -0.10510873 0.49269336 1.010698e-38
-0.24573638 -0.10521341 0.49629647 1.0567598e-38
-0.23891501 -0.10788895 0.49846676 1.0018034e-38
-0.29283902 -0.097961277 0.49674082 8.5425368e-39
-0.28461343 -0.095179342 0.49707925 8.4517719e-39
-0.27507159 -0.095208809 0.49635825 8.8191097e-39
-0.26505578 -0.094869308 0.4963707 9.2786613e-39
-0.25510991 -0.095434092 0.49730533 9.9233021e-39
-0.24680574 -0.09770374 0.49859461 9.9251098e-39
-0.23999526 -0.09932477 0.49900001 1.5769717e-38
-0.28521156 -0.089380123 0.49787503 8.5428788e-39
-0.27456263 -0.088949598 0.49882355 8.7265708e-39
-0.26532269 -0.087878831 0.49827772 9.2783012e-39
-0.25748914 -0.088468254 0.49874994 9.6460173e-39
-0.24376744 -0.20485863 0.50331819 1.4900428e-38
-0.23376758 -0.20404266 0.50443864 1.1942263e-38
-0.22882083 -0.20264573 0.50682354 1.1850404e-38
-0.23108093 -0.19579148 0.50140917 1.0197397e-38
-0.22845565 -0.19475217 0.50516951 1.0473956e-38
-0.22704211 -0.18474989 0.50442863 1.1759669e-38
-0.22537857 -0.17494598 0.50346202 1.1758583e-38
-0.22435713 -0.16492492 0.50419831 1.1758951e-38
-0.21862763 -0.16481906 0.509 1.1940438e-38
-0.22478552 -0.15480186 0.5037058 1.1850066e-38
-0.22432148 -0.14509872 0.50457871 1.1942261e-38
-0.22502778 -0.13487893 0.50485617 1.1851152e-38
-0.21959716 -0.13379429 0.509 1.1850439e-38
-0.23119342 -0.12359334 0.50044 1.1486687e-38
-0.22656201 -0.12539665 0.50518256 1.176039e-38
-0.23295982 -0.11414836 0.50132388 9.8336344e-39
-0.22738023 -0.11551011 0.50612122 9.3830889e-39
-0.24142961 -0.10258496 0.50030011 9.4727412e-39
-0.23514464 -0.10511307 0.5032258 8.7514032e-39
-0.22904648 -0.10805339 0.50710535 6.4486901e-39
-0.30022669 -0.091080002 0.50600004 8.6358059e-39
-0.29418921 -0.092426874 0.50200003 8.5428914e-39
-0.251288 -0.091506757 0.50023079 1.0109481e-38
-0.24405967 -0.093838952 0.50306875 9.7587084e-39
-0.23909655 -0.097052425 0.50505006 7.9303067e-39
-0.30093378 -0.085125513 0.5075556 8.7269253e-39
-0.29515201 -0.086255312 0.50438082 8.6350828e-39
-0.28453556 -0.083970323 0.50379723 8.4517677e-39
-0.27524465 -0.084295519 0.50152731 8.7269211e-39
-0.26473171 -0.082744062 0.50149995 9.0949848e-39
-0.25443977 -0.084182352 0.50217807 9.8311135e-39
-0.24667893 -0.086026318 0.50580615 1.0585962e-38
-0.28475031 -0.076755099 0.50741673 8.4517607e-39
-0.27485064 -0.074786752 0.50588667 8.6347269e-39
-0.26498359 -0.074789375 0.50554842 8.9109522e-39
-0.25536275 -0.075538933 0.50649542 9.5552454e-39
-0.24847643 -0.077844895 0.50768185 1.0570493e-38
-0.27170908 -0.068109065 0.50899994 8.7272742e-39
-0.26543307 -0.067868337 0.50858831 8.8198286e-39
-0.25740859 -0.069320962 0.509 9.0042241e-39
-0.2280163 -0.21072805 0.51711112 1.1206147e-38
-0.23056261 -0.20868723 0.5121429 1.157384e-38
-0.22768512 -0.2048046 0.51523399 1.0655834e-38
-0.2258587 -0.19459502 0.51445735 1.1668181e-38
-0.2227205 -0.18466999 0.51462322 1.1759309e-38
-0.21973747 -0.18667527 0.51900005 1.1392317e-38
-0.2213718 -0.17539914 0.51353586 1.1667819e-38
-0.21944655 -0.1741451 0.51780009 1.1575272e-38
-0.2209509 -0.16455787 0.51086962 1.1850422e-38
-0.21863209 -0.16418613 0.51498115 1.1850418e-38
-0.22066045 -0.15609325 0.51028585 1.1757883e-38
-0.21835341 -0.15496126 0.51544118 1.1757872e-38
-0.22073294 -0.14395821 0.51021063 1.1850777e-38
-0.21774748 -0.14516015 0.51582032 1.1758583e-38
-0.22035229 -0.13608144 0.5103001 1.1758585e-38
-0.21810383 -0.13528709 0.5153507 1.1758591e-38
-0.22198823 -0.12415968 0.51109809 1.1301207e-38
-0.21805137 -0.12556891 0.51587492 1.1300118e-38
-0.22273129 -0.11433896 0.51347125 7.920174e-39
-0.21829392 -0.11612746 0.51695126 9.3895629e-39
-0.23265904 -0.10252862 0.51295841 1.3095053e-38
-0.22670396 -0.10606959 0.515939 1.1799966e-38
-0.24084492 -0.09707348 0.51000005 6.4472341e-39
-0.23500882 -0.094985433 0.51306874 8.0195933e-39
-0.22702825 -0.094755441 0.51748705 8.8493638e-39
-0.30385655 -0.08088699 0.5126667 8.5442997e-39
-0.24285556 -0.083871134 0.51143336 9.310702e-39
-0.23477577 -0.085058942 0.51374823 6.5422968e-39
-0.22774002 -0.086652488 0.51782238 3.0392258e-39
-0.30378929 -0.075023726 0.51526153 8.5446864e-39
-0.29600975 -0.071984023 0.51342863 8.4521195e-39
-0.28554302 -0.071793027 0.51055878 8.5432347e-39
-0.25242364 -0.0717379 0.51000017 9.8314666e-39
-0.24471286 -0.074663162 0.51357484 1.5477735e-38
-0.23568475 -0.075683683 0.51701868 1.2719049e-38
-0.22984287 -0.079580002 0.51900005 6.6140405e-39
-0.30210823 -0.06801448 0.51826668 8.3617287e-39
-0.29455671 -0.065213405 0.5159474 8.3602868e-39
-0.28500074 -0.064952604 0.51315862 8.5428788e-39
-0.27546766 -0.064489812 0.51210529 8.5428914e-39
-0.26460359 -0.063333422 0.51174051 8.8194628e-39
-0.25482842 -0.06470383 0.51171046 9.3712101e-39
-0.24555384 -0.065439194 0.51580966 1.2331205e-38
-0.23805459 -0.067937814 0.51880008 1.8439499e-38
-0.29133201 -0.058523428 0.51900005 8.3599182e-39
-0.28408924 -0.056012623 0.5179106 8.451409e-39
-0.27467746 -0.055029873 0.51655096 8.54289e-39
-0.26492298 -0.05498049 0.51592547 8.818744e-39
-0.25509518 -0.055334423 0.51643753 9.0957036e-39
-0.24778806 -0.056440648 0.51806974 1.0199553e-38
-0.27362248 -0.049357969 0.51900005 8.5432347e-39
-0.26647431 -0.048045386 0.51882362 8.7272728e-39
-0.25734317 -0.049383637 0.51900005 9.0031451e-39
-0.22584356 -0.21026939 0.52514285 8.640866e-39
-0.22556414 -0.20590682 0.52410012 1.0293522e-38
-0.22305843 -0.19463412 0.5221917 1.1300127e-38
-0.21974859 -0.1925943 0.528 1.1488129e-38
-0.22076502 -0.18430422 0.5220834 1.1483431e-38
-0.21946356 -0.18240479 0.5218572 1.1483443e-38
-0.21782419 -0.17400151 0.52261221 1.1574201e-38
-0.21679695 -0.16570576 0.5242117 1.1666027e-38
-0.21521394 -0.15525207 0.52556342 1.1573485e-38
-0.21446414 -0.1445878 0.52519649 1.1574203e-38
-0.21440092 -0.13480419 0.52466673 1.1666035e-38
-0.21460988 -0.12485908 0.52495879 1.1207934e-38
-0.21599187 -0.11474718 0.52559459 9.3938901e-39
-0.22359361 -0.10380757 0.52478802 3.5960331e-39
-0.21847658 -0.10491544 0.52759999 4.8859816e-39
-0.22237101 -0.095048867 0.5229286 6.8196138e-39
-0.21856429 -0.094382338 0.52640754 3.409446e-39
-0.22398733 -0.084247217 0.52378839 7.0976286e-39
-0.21799028 -0.088129289 0.52744454 7.1847543e-39
-0.30803812 -0.07131429 0.52000004 8.6383226e-39
-0.23117635 -0.07332696 0.52202791 7.1916403e-39
-0.22665323 -0.076332115 0.52467102 5.7172347e-39
-0.31090668 -0.066372074 0.52400005 8.3635518e-39
-0.30562583 -0.064518936 0.5225969 8.5453997e-39
-0.29801905 -0.060661592 0.52066672 8.6368737e-39
-0.24175453 -0.061470799 0.52099997 1.6686361e-38
-0.23439606 -0.064878605 0.5235163 7.3749539e-39
-0.22532251 -0.064757802 0.52649426 7.0983629e-39
-0.21708392 -0.064170837 0.52719319 1.0048994e-38
-0.30368161 -0.055915624 0.52726787 8.5453983e-39
-0.29463804 -0.054608922 0.52263641 8.3602952e-39
-0.28643149 -0.051682055 0.52080005 8.2684499e-39
-0.27683812 -0.050019052 0.52000004 8.4510461e-39
-0.26297143 -0.050019052 0.52000004 8.81983e-39
-0.25207385 -0.050414532 0.52025002 9.5534434e-39
-0.24396509 -0.05426598 0.52317333 1.1776603e-38
-0.23606433 -0.055708028 0.52645791 9.9542568e-39
-0.22433242 -0.05470426 0.52472717 5.5313973e-39
-0.21777666 -0.055938281 0.52708012 9.67913e-39
-0.30127811 -0.049877144 0.52900004 8.3617217e-39
-0.29423591 -0.04765236 0.52728206 8.2691743e-39
-0.28464729 -0.04494619 0.5244109 8.3599308e-39
-0.27514341 -0.044507079 0.52197725 8.5428844e-39
-0.26436272 -0.043930609 0.52220273 8.7269169e-39
-0.25474766 -0.044591025 0.52268559 9.1864713e-39
-0.24566506 -0.045642275 0.52626866 1.0293538e-38
-0.23738652 -0.049357623 0.52883339 1.7238065e-38
-0.2237245 -0.047982357 0.52666664 4.0562546e-39
-0.21915716 -0.049373336 0.52900004 7.7466315e-39
-0.28286144 -0.038100462 0.5272401 8.4506915e-39
-0.27404514 -0.03600283 0.52650011 8.3599308e-39
-0.26515278 -0.035278648 0.52627838 8.6347241e-39
-0.25581983 -0.035698805 0.52685565 9.0939184e-39
-0.2483419 -0.03745883 0.5276925 9.5548839e-39
-0.2713829 -0.029706035 0.52866673 8.5421669e-39
-0.26462787 -0.029458813 0.52875006 8.8180209e-39
-0.25877371 -0.02920012 0.52862501 8.7255016e-39
-0.22040002 -0.18088001 0.53200001 1.1481671e-38
-0.21815854 -0.18119417 0.53338462 1.1300145e-38
-0.21635549 -0.1750197 0.5310812 1.1298696e-38
-0.21397765 -0.16430417 0.53300011 1.1573124e-38
-0.21247244 -0.1546133 0.53395665 1.1573121e-38
-0.21191986 -0.1448102 0.5334 1.157384e-38
-0.20951429 -0.14224039 0.53840011 1.1298342e-38
-0.21156694 -0.13530235 0.53420407 1.1664956e-38
-0.20943215 -0.13361095 0.53750002 1.1481993e-38
-0.21158379 -0.12471717 0.53272557 1.1573838e-38
-0.20955364 -0.12541564 0.53750014 1.1482716e-38
-0.21203491 -0.1149238 0.53280652 1.1313783e-38
-0.20894392 -0.11584164 0.53751612 1.1025688e-38
-0.22053812 -0.10595906 0.53233337 6.5521367e-39
-0.21480685 -0.10597039 0.53410316 1.0507438e-38
-0.20995335 -0.10934 0.53900003 1.212277e-38
-0.21382299 -0.094064556 0.53574985 8.7589842e-39
-0.20980573 -0.094438098 0.53600001 2.129683e-38
-0.2207583 -0.081277907 0.53140002 6.1753233e-39
-0.21664548 -0.084300116 0.53421628 6.7292216e-39
-0.2213695 -0.075950287 0.53495836 8.7593191e-39
-0.21746658 -0.075012363 0.53468567 9.4965296e-39
-0.22040002 -0.069413342 0.53200001 1.0694728e-38
-0.21288927 -0.065075926 0.53187507 1.0048983e-38
-0.20683151 -0.064719327 0.53578085 9.7724047e-39
-0.31288004 -0.053105582 0.53542864 8.6404932e-39
-0.30750257 -0.051911678 0.53136843 8.4550061e-39
-0.23410445 -0.051433023 0.5303334 5.434859e-39
-0.21339811 -0.054450713 0.53311366 9.8638758e-39
-0.20811877 -0.056307398 0.53704762 9.4954478e-39
-0.3037357 -0.045698028 0.53352273 8.3624462e-39
-0.29560706 -0.04273938 0.53152174 8.2691729e-39
-0.24165031 -0.042474683 0.53117234 9.7454395e-39
-0.23718554 -0.044802714 0.53243113 1.6685982e-38
-0.22226708 -0.043303639 0.53118175 7.188741e-39
-0.21552886 -0.045175068 0.53484869 7.2827457e-39
-0.20995335 -0.048766669 0.53900003 6.915719e-39
-0.3016232 -0.037893809 0.53770012 8.6368807e-39
-0.29426399 -0.0351592 0.53537309 8.4528495e-39
-0.28524268 -0.033492699 0.53249162 8.2677478e-39
-0.27692971 -0.032397941 0.53061116 8.4506971e-39
-0.25272402 -0.031977963 0.53057146 9.2779509e-39
-0.24413955 -0.034442019 0.53244668 9.8325554e-39
-0.23716074 -0.035944935 0.53614998 1.3819293e-38
-0.22153002 -0.039123334 0.53350008 5.7007596e-39
-0.21564771 -0.039126921 0.53633338 3.3097507e-39
-0.20853907 -0.039453335 0.53800005 2.2065658e-39
-0.29250336 -0.02776592 0.53707153 8.4531971e-39
-0.28415972 -0.025738923 0.53601491 8.3595693e-39
-0.27493629 -0.025044877 0.53446662 8.3592134e-39
-0.26500192 -0.024631092 0.53346044 8.5428844e-39
-0.254899 -0.025275465 0.53399056 9.0020759e-39
-0.24605249 -0.025721686 0.53667033 9.4634043e-39
-0.23972668 -0.028746668 0.53900003 9.8332981e-39
-0.27344477 -0.01812127 0.5375334 8.4503286e-39
-0.2646623 -0.017257001 0.53676367 8.5421683e-39
-0.25603214 -0.018201714 0.53722221 8.8180489e-39
-0.24896669 -0.018993335 0.53900003 8.9120242e-39
-0.21597603 -0.17441711 0.54439133 1.1395206e-38
-0.21295555 -0.16372171 0.54466665 1.1301221e-38
-0.2118277 -0.15550187 0.54406071 1.1391604e-38
-0.20909874 -0.15299843 0.54211116 1.1392687e-38
-0.21103989 -0.14766125 0.54138464 1.1574201e-38
-0.20889893 -0.1431538 0.54213345 1.1391246e-38
-0.21021619 -0.13756858 0.54100001 1.1574193e-38
-0.20790076 -0.13452955 0.54408008 1.148235e-38
-0.20718236 -0.12503234 0.54291815 1.1482716e-38
-0.20637818 -0.11396178 0.54298311 1.1575272e-38
-0.21148089 -0.10329375 0.54050004 1.3919044e-38
-0.2073286 -0.10534866 0.54437196 1.2322185e-38
-0.21159621 -0.09503857 0.5430811 2.0559994e-38
-0.20808293 -0.095120043 0.54696441 1.7782232e-38
-0.21238932 -0.084772378 0.54347891 9.4039949e-39
-0.20825113 -0.086468078 0.54780006 1.844059e-38
-0.21181938 -0.077771112 0.54591674 8.0195821e-39
-0.20928383 -0.078285724 0.54800004 4.6990989e-39
-0.20338221 -0.062256671 0.54160005 8.943353e-39
-0.20456673 -0.054367658 0.54306072 8.480584e-39
-0.31100479 -0.041037146 0.54200006 9.1050559e-39
-0.30812344 -0.041543242 0.54119998 8.5478996e-39
-0.21114691 -0.043156665 0.54025 7.2820156e-39
-0.20716175 -0.045989629 0.54336685 5.3473479e-39
-0.3116436 -0.038208183 0.54341674 9.7543812e-39
-0.30562064 -0.034478135 0.54271436 8.6415568e-39
-0.29903659 -0.031623241 0.54080003 8.3617315e-39
-0.23353063 -0.033394057 0.54153126 1.6868572e-38
-0.22755446 -0.033433594 0.54586375 7.0043427e-39
-0.30322126 -0.027173409 0.54561543 8.7348076e-39
-0.29499593 -0.023870669 0.54323083 8.4539229e-39
-0.2864376 -0.021051357 0.54115385 8.3595735e-39
-0.24217021 -0.022718832 0.54123086 9.8321995e-39
-0.23496889 -0.024891902 0.54444736 9.7615852e-39
-0.22842157 -0.028768206 0.5461539 1.2722298e-38
-0.29307017 -0.017368158 0.54691309 8.3617427e-39
-0.28456661 -0.01515392 0.54361302 8.2684471e-39
-0.27558944 -0.013651301 0.5416038 8.3584889e-39
-0.2655673 -0.01238072 0.54110819 8.4503188e-39
-0.25435776 -0.013606137 0.54074275 8.9095145e-39
-0.24501197 -0.014947775 0.54365027 9.370857e-39
-0.23668601 -0.016010892 0.54698402 1.0201692e-38
-0.28349495 -0.0086054178 0.54768759 8.359205e-39
-0.27453575 -0.0056361123 0.54566681 8.3592092e-39
-0.26493087 -0.0051225894 0.54497999 8.4506887e-39
-0.25500381 -0.0058038505 0.54577315 8.8180363e-39
-0.24637538 -0.0074661816 0.54761708 9.0946232e-39
-0.23999144 -0.0099342866 0.54900002 9.8318155e-39
-0.27209777 0.0010448811 0.54837507 8.358842e-39
-0.26446396 0.0014419808 0.54839998 8.4510433e-39
-0.25724572 0.00052285718 0.54900002 8.6343793e-39
-0.21009383 -0.14338715 0.55150002 1.1208301e-38
-0.20779017 -0.14218938 0.55221057 1.1209034e-38
-0.21004763 -0.13671429 0.55000001 1.157456e-38
-0.20688182 -0.13629851 0.55328125 1.1208659e-38
-0.20580758 -0.12474962 0.55460876 1.1391937e-38
-0.20475288 -0.11538894 0.55444694 1.139231e-38
-0.20373823 -0.10491113 0.55472136 1.1392664e-38
-0.20394558 -0.095262244 0.55414289 1.1301196e-38
-0.20512533 -0.084847666 0.55489969 1.4177616e-38
-0.21047303 -0.072631113 0.55666673 1.0782927e-38
-0.2071559 -0.075491242 0.55619115 1.0788715e-38
-0.20748894 -0.068896554 0.55862504 4.8911076e-39
-0.22361605 -0.033100955 0.55170375 3.9629715e-39
-0.21205097 -0.037353851 0.55846161 1.0792628e-38
-0.30341223 -0.021884605 0.55150002 8.6415484e-39
-0.23103464 -0.021527303 0.55133337 6.633405e-39
-0.22345829 -0.025009455 0.55347186 6.5430087e-39
-0.21848655 -0.024190856 0.55655998 7.4642321e-39
-0.303617 -0.016903179 0.55475003 8.6447812e-39
-0.29634887 -0.013011452 0.55307144 8.4564523e-39
-0.23334229 -0.012142687 0.55315387 1.0843459e-38
-0.22560239 -0.014752104 0.55691171 1.0771432e-38
-0.2185643 -0.019292859 0.55500001 9.5880709e-39
-0.30025718 -0.0063771433 0.55800003 8.4614885e-39
-0.29464099 -0.0054882374 0.55633336 8.548994e-39
-0.2853924 -0.0038262557 0.55298054 8.2691645e-39
-0.2781243 -0.0010485714 0.551 8.2680925e-39
-0.25248712 -0.0010008659 0.55054551 8.7269155e-39
-0.24397105 -0.0034607141 0.55187494 9.1868132e-39
-0.23538257 -0.0054726847 0.55500925 9.9229518e-39
-0.2287844 -0.0081893345 0.55840009 1.1210468e-38
-0.29041952 0.0010642859 0.55850005 8.2756343e-39
-0.28340548 0.0031397687 0.5562163 8.2702407e-39
-0.27474621 0.0055622272 0.55440325 8.1758955e-39
-0.2647838 0.005947738 0.55273223 8.4506957e-39
-0.25466672 0.0048362631 0.55267721 8.6350968e-39
-0.24506362 0.0047828667 0.55592549 9.0942603e-39
-0.23708718 0.0027914778 0.55730766 9.5548755e-39
-0.27309814 0.01191792 0.55840743 8.3592078e-39
-0.26467913 0.012388596 0.55751169 8.358856e-39
-0.25524586 0.012075116 0.5573402 8.5432403e-39
-0.24681249 0.011449818 0.55815381 8.8187552e-39
-0.20502535 -0.13438374 0.56263286 1.1398791e-38
-0.20396374 -0.12476031 0.56539583 1.1301559e-38
-0.20312797 -0.11574329 0.5643658 1.120793e-38
-0.20191759 -0.10364074 0.56653845 1.1207561e-38
-0.19961144 -0.1011581 0.56800002 1.1116452e-38
-0.20126203 -0.094941959 0.56400007 1.1392324e-38
-0.1995652 -0.092472911 0.56855565 1.1482712e-38
-0.20119806 -0.084769212 0.56262511 1.1484155e-38
-0.19973309 -0.085049912 0.5673334 1.1391604e-38
-0.2022756 -0.075018324 0.562922 1.3157699e-38
-0.19948409 -0.075000472 0.56780005 1.1577414e-38
-0.20383678 -0.065152049 0.56498837 1.7049718e-38
-0.19978717 -0.067136347 0.56850004 1.0658359e-38
-0.20458193 -0.054753158 0.5672754 1.7149137e-38
-0.21236078 -0.041886605 0.56146669 6.2595582e-39
-0.20638672 -0.044692747 0.56417102 6.0845626e-39
-0.21092074 -0.033561353 0.56091666 1.2079389e-38
-0.20803492 -0.03639482 0.56197065 6.9135736e-39
-0.21411085 -0.024832765 0.56167287 7.8355467e-39
-0.20914215 -0.028262144 0.56525004 7.6475738e-39
-0.3040086 -0.011220001 0.56100005 8.4611172e-39
-0.22254841 -0.012995215 0.56468296 1.1224516e-38
-0.21856408 -0.014618782 0.56650001 1.1599036e-38
-0.30415899 -0.0071699689 0.56166673 8.2788937e-39
-0.29635367 -0.0014225398 0.56033337 8.6433491e-39
-0.23120485 -0.0020123075 0.56046152 1.0382847e-38
-0.22521803 -0.0045967149 0.56461215 1.0844901e-38
-0.21947144 -0.0010838096 0.56900001 1.0754862e-38
-0.29398948 0.0042158724 0.56438881 8.6440595e-39
-0.2860823 0.0071923817 0.56118184 8.4557152e-39
-0.24053335 0.0090666674 0.56 9.3726422e-39
-0.23376746 0.0057529039 0.56279463 9.9236664e-39
-0.22604068 0.0040659392 0.56665307 1.0477202e-38
-0.21947144 0.00054190482 0.56900001 1.0664096e-38
-0.29112917 0.011152 0.56840008 8.736988e-39
-0.28419349 0.014684279 0.56509441 7.5395266e-39
-0.27568966 0.016432988 0.5628801 7.6270503e-39
-0.26544598 0.017437806 0.56155574 7.8107213e-39
-0.25478417 0.01751454 0.56159258 8.0880257e-39
-0.24420729 0.015788293 0.56318808 8.3649685e-39
-0.23545919 0.014004252 0.56616867 8.5497227e-39
-0.22945921 0.011678232 0.56842864 9.9312236e-39
-0.28270924 0.020038731 0.5686667 4.4178442e-39
-0.27379289 0.023831591 0.56788248 2.1165576e-39
-0.26503557 0.024476472 0.56623465 3.2171473e-39
-0.25470659 0.023860577 0.5651691 5.5151913e-39
-0.24557936 0.022954691 0.56738114 2.2977035e-39
-0.2378962 0.020050477 0.56900001 2.4799522e-39
-0.20107873 -0.10597941 0.57107157 1.120791e-38
-0.19990429 -0.10595381 0.57350004 1.1391236e-38
-0.2003143 -0.097171433 0.57000005 1.130013e-38
-0.19879773 -0.093958944 0.57300001 1.1207224e-38
-0.2003143 -0.085771434 0.57000005 1.1391598e-38
-0.19823191 -0.084593162 0.57212502 1.120793e-38
-0.19823112 -0.074807294 0.57388234 1.1391951e-38
-0.2003143 -0.061885718 0.57000005 1.1129778e-38
-0.1984973 -0.064995743 0.5741905 1.1393046e-38
-0.20065945 -0.054274969 0.57128572 1.8252224e-38
-0.19882418 -0.055373292 0.57599992 1.2229985e-38
-0.20161904 -0.044200834 0.57246929 9.8595752e-39
-0.19916356 -0.04674758 0.57685727 1.465621e-38
-0.20415477 -0.036027208 0.5741896 9.4918619e-39
-0.20757127 -0.024533533 0.57675862 1.3269694e-38
-0.2148494 -0.011525715 0.57460612 1.2225324e-38
-0.20936382 -0.01890032 0.57800007 1.0943564e-38
-0.30506814 -0.00054476195 0.57200003 8.461141e-39
-0.22106391 -0.0066211908 0.57125008 1.1396636e-38
-0.2152568 -0.0049162381 0.57480216 1.1028573e-38
-0.30410737 0.0042536808 0.57345462 7.7278822e-39
-0.29745451 0.0080432808 0.57144445 8.462206e-39
-0.22234464 0.0066133337 0.57210803 9.9301362e-39
-0.2171689 0.00402404 0.5765 9.8365015e-39
-0.30053756 0.011716573 0.57480001 5.1564813e-39
-0.29559368 0.013655297 0.57350016 6.8105978e-39
-0.28934288 0.016285716 0.57000005 6.6262107e-39
-0.23229483 0.017771851 0.57122231 7.5366652e-39
-0.22508103 0.014467815 0.57398909 8.3646e-39
-0.21770573 0.014038096 0.57483339 8.3628105e-39
-0.28402266 0.024973031 0.57349998 2.8548261e-39
-0.27740216 0.025598044 0.57050008 2.0257997e-39
-0.25051397 0.028279684 0.57100004 1.3804359e-39
-0.24530891 0.026022153 0.57178259 1.2882221e-39
-0.23473404 0.02208462 0.57269222 6.064412e-39
-0.22865242 0.020700477 0.57575005 8.9145522e-39
-0.19771229 -0.093213543 0.58168423 1.0932772e-38
-0.19664273 -0.085291304 0.5835641 1.0841291e-38
-0.1959179 -0.074793972 0.58306527 1.1208275e-38
-0.19590364 -0.064547434 0.58233333 1.1300124e-38
-0.19632587 -0.055165488 0.58406812 1.1484864e-38
-0.19706088 -0.044421352 0.58391666 1.2036959e-38
-0.20157312 -0.033361085 0.58086205 1.3911449e-38
-0.19768924 -0.035649206 0.58526802 1.1854011e-38
-0.20342025 -0.024545712 0.58291924 1.23204e-38
-0.19834568 -0.025658894 0.58743334 1.130084e-38
-0.21152708 -0.014570238 0.58091664 1.2596258e-38
-0.20471235 -0.014862426 0.58397102 1.1579589e-38
-0.19903374 -0.017090559 0.5884167 1.1024972e-38
-0.21045718 -0.0049714288 0.57999998 1.0568318e-38
-0.20578071 -0.0052600093 0.58486205 1.0201342e-38
-0.30933335 0.0049714288 0.58000004 5.705716e-39
-0.21265505 0.0060591707 0.58205551 8.2709694e-39
-0.20798285 0.0042769532 0.58635002 6.5253803e-39
-0.22067621 0.014361906 0.58000004 8.1780353e-39
-0.21606246 0.012224087 0.58264512 7.9936608e-39
-0.20849669 0.010649049 0.58850002 7.9021743e-39
-0.19337048 -0.072856396 0.59274191 1.0840941e-38
-0.18885763 -0.072026193 0.59549999 9.7424855e-39
-0.19389367 -0.065386347 0.5946793 1.1024606e-38
-0.19352867 -0.054986879 0.59475011 1.1116456e-38
-0.19368596 -0.045252621 0.59426004 1.1300127e-38
-0.19365831 -0.034729887 0.5937736 1.1300473e-38
-0.19477902 -0.024903977 0.5934667 1.1117168e-38
-0.19588 -0.015093637 0.59437495 1.0842737e-38
-0.20114116 -0.0029262858 0.59160012 5.4240662e-39
-0.19725978 -0.0056844293 0.59515017 5.3322237e-39
-0.20398068 0.0039978474 0.59326005 1.3789856e-39
-0.19819359 0.0017058009 0.59690917 1.1967537e-39
-0.19163497 -0.053075742 0.60470587 1.084129e-38
-0.18937001 -0.051330008 0.60900003 1.0565425e-38
-0.19118099 -0.04526731 0.60260016 1.1116812e-38
-0.18912724 -0.04391516 0.60391676 1.0933486e-38
-0.19126466 -0.034607653 0.60345161 1.1209356e-38
-0.1894325 -0.035516787 0.60412502 1.1117871e-38
-0.19167013 -0.024856862 0.60288239 1.1210434e-38
-0.18925042 -0.024808943 0.60583329 1.1028192e-38
-0.19192035 -0.014793986 0.6047895 8.1830926e-39
-0.18968573 -0.018169144 0.60759997 9.5634963e-39
-0.19272123 -0.0072289277 0.60418755 2.1169108e-39
-0.19125286 -0.042528093 0.61600006 1.1024954e-38
-0.18913418 -0.045318455 0.61412501 1.056437e-38
-0.19091335 -0.036942542 0.61344457 1.1024602e-38
-0.18858628 -0.034829527 0.61577421 1.0841298e-38
-0.19004764 -0.023390478 0.61400002 1.0753759e-38
-0.1885508 -0.024721066 0.61552948 9.9290544e-39
-0.19046973 -0.01339581 0.61160004 3.1307068e-39
-0.18794148 -0.015679942 0.6136471 4.3278234e-39
-0.19049048 -0.008738731 0.61166668 3.0399503e-39
-0.18907739 -0.0093373815 0.61275005 3.9633429e-39
-0.18582243 -0.033093072 0.62241375 9.0070939e-39
-0.18621528 -0.026659174 0.6220417 7.8161205e-39
