# .PCD v0.7 - Point Cloud Data file format
VERSION 0.7
FIELDS x y z rgb
SIZE 4 4 4 4
TYPE F F F F
COUNT 1 1 1 1
WIDTH 221
HEIGHT 1
VIEWPOINT 0 0 0 1 0 0 0
POINTS 221
DATA ascii
0.76467335 0.27370003 1.4490002 3.4058349e-39
0.77142012 0.27462003 1.4490001 2.2141188e-39
0.76797009 0.28635001 1.4490001 9.8572953e-39
0.77142006 0.28428 1.4490001 6.4503842e-39
0.76866007 0.29118001 1.4490001 1.1150629e-38
0.77142006 0.29118001 1.4490001 1.0963298e-38
0.77461433 0.26744288 1.455 3.2261282e-39
0.76537627 0.27390954 1.4550002 4.5978985e-39
0.77276677 0.27298576 1.4550002 2.7637039e-39
0.76907146 0.28407145 1.4550002 8.473656e-39
0.7718429 0.28130001 1.455 4.6014648e-39
0.77322865 0.29515716 1.455 1.0227937e-38
0.78100288 0.2570743 1.4670001 4.7005254e-39
0.77586865 0.26582143 1.4632502 3.4097992e-39
0.78100288 0.26126572 1.4670001 4.2416982e-39
0.76982576 0.27244288 1.4670001 3.7749551e-39
0.77262002 0.27244288 1.4670001 3.6834896e-39
0.76885575 0.28344288 1.4625001 7.9226571e-39
0.78419721 0.24550001 1.473 5.5302664e-39
0.77858579 0.25672287 1.473 4.4225204e-39
0.7825138 0.25503945 1.473 4.9781815e-39
0.77671528 0.26514003 1.473 3.5005529e-39
0.7813915 0.26233432 1.473 3.8707689e-39
0.77578002 0.27075145 1.473 3.6860049e-39
0.77297431 0.28478003 1.473 7.6521532e-39
0.77578002 0.29039145 1.473 1.1243896e-38
0.78722298 0.24827304 1.4840001 4.0587475e-39
0.77925068 0.25611922 1.4834287 3.313324e-39
0.78475243 0.25122023 1.4836 4.7934357e-39
0.77821904 0.2644662 1.483 3.5905891e-39
0.77688622 0.27286527 1.4845001 3.6816931e-39
0.78416485 0.24905559 1.4943335 1.0498063e-38
0.78085387 0.25445592 1.4950001 1.2250516e-38
0.77745885 0.26460218 1.4937501 7.7336121e-39
0.7805053 0.26348621 1.4955001 7.9133244e-39
0.78090769 0.27410287 1.4990001 2.4882002e-39
0.78168577 0.25960574 1.506 1.6872471e-38
0.78168577 0.26677716 1.506 1.1054024e-38
0.78613448 0.2554678 1.5155001 1.8066375e-38
0.7913267 0.25027335 1.5190001 1.8528424e-38
0.78293467 0.26482803 1.5162001 1.7514268e-38
0.78727603 0.27515602 1.5190001 9.5796462e-39
0.78805673 0.28145003 1.5155001 7.5506642e-39
0.79920006 0.30384001 1.5120001 1.1431508e-38
0.80097121 0.30524668 1.5190001 1.1796335e-38
0.74792671 0.31971335 1.5190001 5.5253114e-39
0.75125003 0.31681335 1.5155001 5.8126407e-39
0.78554004 0.31682003 1.5190001 7.4653797e-39
0.8045541 0.31609401 1.5183001 1.0967651e-38
0.80434674 0.32260668 1.5190001 6.9196889e-39
0.78864288 0.25271431 1.5250001 1.8435152e-38
0.78428578 0.26433337 1.5250001 1.8160382e-38
0.785254 0.27498415 1.5250001 1.2441374e-38
0.78767467 0.28127778 1.5250001 1.2713973e-38
0.7973572 0.30790478 1.5250001 1.2167263e-38
0.80084294 0.30587146 1.5250001 1.2164399e-38
0.75523818 0.31589288 1.5250001 6.1746087e-39
0.77702391 0.31516668 1.5250001 6.0910703e-39
0.78532326 0.31433675 1.5250002 1.1337903e-38
0.79481548 0.3148036 1.5250001 1.1062027e-38
0.80352986 0.31552976 1.5250001 1.0969097e-38
0.7973572 0.3209762 1.5250001 5.6243104e-39
0.80026197 0.3209762 1.5250001 6.7317159e-39
0.78934479 0.25679243 1.5320001 1.788342e-38
0.79295146 0.25356859 1.539 1.8435155e-38
0.78715628 0.26408765 1.5320001 1.7881282e-38
0.78675771 0.27639669 1.5355 1.4097689e-38
0.78788579 0.28305525 1.5320001 1.2903434e-38
0.79346514 0.28787017 1.5343335 1.2715402e-38
0.80174577 0.28874573 1.539 9.2040478e-39
0.79881436 0.29167715 1.539 1.1610799e-38
0.80321145 0.29460859 1.539 9.025053e-39
0.77634013 0.3082886 1.539 1.5669625e-38
0.78438497 0.30760753 1.5370002 1.4561484e-38
0.7959013 0.30686447 1.5343335 1.2721174e-38
0.80211437 0.30270955 1.5355 1.1888903e-38
0.75432765 0.31661335 1.5320001 7.9280787e-39
0.77505726 0.31441057 1.5354999 8.9455265e-39
0.78458947 0.31198654 1.5331668 1.3275794e-38
0.79518098 0.31077716 1.5320001 1.2720814e-38
0.79066861 0.27828002 1.5460001 1.4558656e-38
0.78772384 0.28416955 1.5460001 1.4012634e-38
0.79361337 0.28711429 1.5460001 1.3180381e-38
0.78477907 0.29889336 1.5460001 1.4564016e-38
0.79533124 0.29521242 1.5460002 1.3456217e-38
0.80244768 0.29742098 1.5460001 1.1705538e-38
0.7788896 0.30331051 1.5460001 1.5944062e-38
0.78477919 0.30436221 1.5460002 1.465584e-38
0.79495192 0.30451518 1.5460002 1.3454784e-38
0.80342931 0.30281973 1.5460002 1.1515101e-38
0.75533146 0.31508952 1.5460001 8.4647886e-39
0.76711053 0.31656194 1.5460001 6.5354655e-39
0.77300006 0.31656194 1.5460001 8.6556763e-39
0.78833246 0.27954003 1.5530001 1.7329838e-38
0.79326266 0.27658194 1.5530002 1.6037724e-38
0.78685343 0.28545618 1.5530002 1.6313187e-38
0.79276961 0.28619576 1.5530001 1.4194513e-38
0.7853744 0.29433051 1.5530002 1.4930638e-38
0.79203004 0.29359096 1.5530001 1.4286339e-38
0.75579339 0.30912098 1.5530001 1.2902764e-38
0.76565373 0.30813497 1.5530002 1.843696e-38
0.77561265 0.30675444 1.5530003 1.7694695e-38
0.78389525 0.30024669 1.5530001 1.5116465e-38
0.79276955 0.30024669 1.5530001 1.4194502e-38
0.76466769 0.31503716 1.5530002 5.1666267e-39
0.77438718 0.31334683 1.5530002 1.2909569e-38
0.80080003 0.26297143 1.5600001 1.7791231e-38
0.79574889 0.27590835 1.5617501 1.6595177e-38
0.80140865 0.27012098 1.567 1.678249e-38
0.78711629 0.28518638 1.5623335 1.7605374e-38
0.76857626 0.29847622 1.567 1.9356366e-38
0.77479511 0.29776978 1.5652502 1.7881968e-38
0.78221446 0.29525039 1.5631113 1.7418478e-38
0.75820959 0.30556193 1.5600002 1.8159303e-38
0.76521993 0.30529225 1.5611668 1.8436242e-38
0.77337378 0.30362633 1.5608752 1.7696874e-38
0.7814858 0.30160001 1.5600001 1.6863139e-38
0.76316202 0.31150481 1.5600002 1.3456671e-38
0.80798674 0.26233336 1.5740001 1.7974531e-38
0.79899246 0.27732384 1.5740001 1.7332338e-38
0.80199051 0.27432573 1.5740001 1.5399179e-38
0.78759968 0.28691775 1.5740002 1.7974516e-38
0.79449528 0.28032193 1.5740001 1.8158904e-38
0.76751244 0.29831049 1.5740001 1.8989018e-38
0.77500767 0.2953124 1.5740001 1.8619532e-38
0.785501 0.29231429 1.5740001 1.7975225e-38
0.76661301 0.30310747 1.5740002 1.8896487e-38
0.8089236 0.26796478 1.5836668 1.7975263e-38
0.81266004 0.26483336 1.5890001 1.8251112e-38
0.79953432 0.27855715 1.5810001 1.8342564e-38
0.80474609 0.27496448 1.5863335 1.6500127e-38
0.75818002 0.28450668 1.5890001 1.861845e-38
0.76272011 0.28602001 1.5890001 1.8617741e-38
0.77671838 0.28639832 1.589 1.7974513e-38
0.78487253 0.28636923 1.5872223 1.7422784e-38
0.79316676 0.28453112 1.5863335 1.8067439e-38
0.76646066 0.29704887 1.5855715 1.9448572e-38
0.77416521 0.29359776 1.5858002 1.8895044e-38
0.78364676 0.29239565 1.5842001 1.8434059e-38
0.76629055 0.30228382 1.5870001 1.8805008e-38
0.81928003 0.25992003 1.5960001 1.8159301e-38
0.82232004 0.25992003 1.5960001 1.8250057e-38
0.80712003 0.26904002 1.5960001 1.5028232e-38
0.81380808 0.26539204 1.5960001 1.7883779e-38
0.75746673 0.27512002 1.5960001 1.6688103e-38
0.7645601 0.27816004 1.5960001 1.7974873e-38
0.77520007 0.27816001 1.5960001 1.7881975e-38
0.78584003 0.27816004 1.5960001 1.8066015e-38
0.80610675 0.27512002 1.5960001 1.6864935e-38
0.81016004 0.27208 1.5960001 1.6221046e-38
0.7645601 0.28120002 1.5960001 1.8618086e-38
0.77401781 0.28356448 1.596 1.8157482e-38
0.78584003 0.28120002 1.5960001 1.7882697e-38
0.79420006 0.28348002 1.5960001 1.7975607e-38
0.76760006 0.29336002 1.5960001 1.8712819e-38
0.77165341 0.29133338 1.5960001 1.8525551e-38
0.8076067 0.26716667 1.603 1.6776387e-38
0.81422234 0.26360446 1.603 1.8528787e-38
0.75875336 0.27022001 1.603 1.0047547e-38
0.76547074 0.27449468 1.603 1.7149081e-38
0.77445626 0.27414572 1.603 1.769723e-38
0.78512305 0.27355096 1.603 1.8066365e-38
0.79495722 0.27589053 1.603 1.8158199e-38
0.80506229 0.27581781 1.603 1.7234058e-38
0.79844671 0.28243336 1.603 1.8159277e-38
0.80302674 0.28243336 1.603 1.8435143e-38
0.81540596 0.25685811 1.6150001 1.9173419e-38
0.82375586 0.25773677 1.6150001 1.8896857e-38
0.8327536 0.25782788 1.61625 1.8434804e-38
0.75947148 0.26850003 1.6110001 8.1882101e-39
0.76573765 0.26908335 1.6145 8.5720384e-39
0.77509916 0.26966667 1.618 1.4663399e-38
0.7834965 0.26860452 1.61625 1.8438735e-38
0.79460448 0.26807347 1.615375 1.6314282e-38
0.80628103 0.26589009 1.6138 1.6132402e-38
0.81375045 0.26242781 1.6152 1.8620612e-38
0.82084292 0.26236287 1.6110001 1.8712463e-38
0.76714289 0.2715686 1.6110001 1.5489187e-38
0.77481431 0.2715686 1.6110001 1.8252546e-38
0.78402007 0.2715686 1.6110001 1.7881973e-38
0.7993629 0.27310288 1.6110001 1.8251097e-38
0.80593842 0.27376044 1.6110002 1.7051824e-38
0.82567018 0.24509665 1.6260002 9.4911725e-39
0.8315829 0.24932002 1.626 1.9905522e-38
0.79596579 0.25861144 1.626 1.0789777e-38
0.8078382 0.25757906 1.6260002 1.8256506e-38
0.815323 0.25551429 1.626 1.8991165e-38
0.82616287 0.25319141 1.626 1.9176657e-38
0.83313155 0.25396574 1.626 1.9171646e-38
0.76964003 0.26635432 1.626 8.9344296e-39
0.77583438 0.26569065 1.6260002 8.8371486e-39
0.78512585 0.26532194 1.6260002 1.3088135e-38
0.79503661 0.26418629 1.626 1.7977761e-38
0.8045935 0.26392087 1.6260002 1.7699397e-38
0.81300008 0.26170859 1.626 1.8521975e-38
0.81388766 0.2474343 1.6340001 7.2727152e-39
0.83723056 0.2474343 1.6340001 1.3926824e-38
0.84656763 0.24120954 1.6340001 8.1863324e-39
0.77965146 0.25988382 1.6340001 1.3836284e-38
0.78649873 0.25863889 1.6340001 1.1610471e-38
0.7952134 0.25729018 1.6340001 5.4248243e-39
0.80420476 0.25538817 1.6339999 9.0322668e-39
0.8138876 0.25314036 1.6340001 1.105919e-38
0.82011241 0.25210288 1.6340001 1.3740705e-38
0.83878672 0.25054669 1.6340001 1.9722593e-38
0.84438896 0.25303659 1.6340001 1.9541124e-38
0.77653909 0.2629962 1.6340001 1.7310143e-38
0.78587627 0.2629962 1.6340002 4.790591e-39
0.7952134 0.26455241 1.6340001 1.5581018e-38
0.80455053 0.2629962 1.6340001 1.9729798e-38
0.81424862 0.2484943 1.641 6.8042149e-39
0.82317251 0.24685811 1.6426001 8.0160242e-39
0.83643025 0.24472541 1.6436666 5.9848617e-39
0.84550583 0.2453686 1.641 1.271324e-38
0.8548829 0.24626164 1.641 1.7052557e-38
0.86148679 0.24576223 1.6436666 1.705187e-38
0.81320667 0.25266194 1.6410002 4.1424134e-39
0.82675147 0.25162002 1.641 1.4291709e-38
0.8486315 0.25318289 1.641 2.0000657e-38
0.85644579 0.25162002 1.641 1.9357103e-38
0.86953056 0.24460478 1.6570001 1.0894878e-38
