# .PCD v0.7 - Point Cloud Data file format
VERSION 0.7
FIELDS x y z rgb
SIZE 4 4 4 4
TYPE F F F F
COUNT 1 1 1 1
WIDTH 1015
HEIGHT 1
VIEWPOINT 0 0 0 1 0 0 0
POINTS 1015
DATA ascii
-0.10986858 -0.088400006 1.3260001 1.0227926e-38
-0.16122478 -0.078718096 1.3260001 5.6206502e-39
-0.15455517 -0.075697228 1.3247502 5.5277539e-39
-0.14845525 -0.072969526 1.3210001 5.4355373e-39
-0.12203524 -0.072969526 1.3210001 1.059854e-38
-0.11626844 -0.075735241 1.3236926 1.059782e-38
-0.15078516 -0.066426292 1.3260001 5.0664072e-39
-0.14521016 -0.065208584 1.3237275 5.4355555e-39
-0.13713239 -0.063084498 1.3210001 6.6348301e-39
-0.1251321 -0.064743534 1.3210001 9.6783705e-39
-0.11740802 -0.065646753 1.3255835 1.0873688e-38
-0.14270286 -0.056828577 1.3260001 5.895463e-39
-0.13398021 -0.055254098 1.324667 7.372391e-39
-0.12561342 -0.056178503 1.3255836 9.5865196e-39
-0.11997144 -0.056828573 1.3260001 1.0690729e-38
-0.13344193 -0.049251433 1.3260001 7.3723896e-39
-0.12754858 -0.049251433 1.3260001 9.2162966e-39
-0.2430248 -0.18449526 1.3360002 3.128162e-39
-0.18322287 -0.095428579 1.3360002 5.7103557e-39
-0.17723371 -0.092895374 1.3316251 5.8032506e-39
-0.1043581 -0.092305005 1.3322502 1.0596353e-38
-0.17489342 -0.084267549 1.3339169 5.8036177e-39
-0.16859335 -0.08366286 1.3310001 5.8954448e-39
-0.11028286 -0.08366286 1.3310001 1.0228993e-38
-0.10406663 -0.084080838 1.3336669 1.0412687e-38
-0.097973339 -0.081432387 1.3360001 1.0872944e-38
-0.17177144 -0.077615246 1.3360001 5.8951029e-39
-0.16537055 -0.075704843 1.3322502 5.7110578e-39
-0.15845239 -0.072254293 1.3310001 5.2515398e-39
-0.11112794 -0.075212076 1.3310002 1.0229015e-38
-0.1052741 -0.076029345 1.3350003 1.0413042e-38
-0.16301905 -0.066474713 1.333778 5.157884e-39
-0.15614763 -0.065570481 1.3310003 5.3422794e-39
-0.11165405 -0.065975718 1.3322502 1.0505247e-38
-0.10688001 -0.067436196 1.3360002 1.0504889e-38
-0.16159239 -0.05980191 1.3360001 5.9854894e-39
-0.15364556 -0.056675851 1.3332729 5.7110648e-39
-0.14662129 -0.053662546 1.3310002 5.5273882e-39
-0.12169144 -0.051972385 1.3310001 1.0505993e-38
-0.11493056 -0.056538768 1.3329233 1.0781837e-38
-0.15141334 -0.048350479 1.3360001 5.4359128e-39
-0.14402461 -0.046592858 1.3343337 5.6192223e-39
-0.13446514 -0.044756703 1.3310003 7.0950922e-39
-0.12409441 -0.045424581 1.3323334 1.0045348e-38
-0.11705905 -0.04962286 1.3360001 1.1425043e-38
-0.14123429 -0.039443813 1.3360001 5.8940351e-39
-0.13462476 -0.039370004 1.3335 7.1862131e-39
-0.12580541 -0.03939461 1.3343334 9.5858036e-39
-0.2621305 -0.19200097 1.3470001 2.762262e-39
-0.25485063 -0.19298132 1.3463751 2.6696936e-39
-0.24652688 -0.19174629 1.3440001 2.8526457e-39
-0.25467739 -0.18427606 1.3458464 3.0359636e-39
-0.24731144 -0.18404573 1.342 3.0356062e-39
-0.25118342 -0.17626457 1.3470001 3.3125533e-39
-0.24599542 -0.17492382 1.3462859 3.1288977e-39
-0.24246001 -0.15137716 1.3470001 3.4969361e-39
-0.24246001 -0.14752857 1.3470001 3.9564751e-39
-0.23944905 -0.14597191 1.3445001 3.8649872e-39
-0.19176446 -0.094813973 1.3453335 5.3433753e-39
-0.18671858 -0.093357317 1.3428334 5.5270322e-39
-0.19114573 -0.088517152 1.3470001 5.0675142e-39
-0.18476705 -0.084449388 1.3450769 5.6192181e-39
-0.17765525 -0.080520004 1.342 5.8039919e-39
-0.18173811 -0.07739906 1.3470001 5.6188663e-39
-0.17563057 -0.073903464 1.3442729 5.4352065e-39
-0.16998668 -0.071573339 1.342 5.2508083e-39
-0.101992 -0.072340198 1.342 1.0412687e-38
-0.09768191 -0.073364764 1.3436668 1.0688568e-38
-0.17267258 -0.065938868 1.3470001 4.6994422e-39
-0.16763842 -0.063980959 1.3436668 5.1593287e-39
-0.10401446 -0.063092381 1.3428334 1.0596363e-38
-0.098266862 -0.064399436 1.3470001 1.0779675e-38
-0.16329037 -0.054237247 1.3453335 5.7107088e-39
-0.15834534 -0.053972762 1.3430001 5.711083e-39
-0.11257833 -0.052448332 1.34325 1.0965134e-38
-0.10504429 -0.05380322 1.3451251 1.0781468e-38
-0.098780006 -0.057728574 1.3470001 1.1056616e-38
-0.16164002 -0.047465716 1.3470001 5.6177775e-39
-0.15525685 -0.045108892 1.3447778 5.3426494e-39
-0.14825904 -0.043455239 1.342 5.4355387e-39
-0.11496038 -0.045215607 1.3446925 1.1149531e-38
-0.10679787 -0.045220714 1.3470001 1.0874017e-38
-0.15214688 -0.036433149 1.3470001 5.3429983e-39
-0.14495325 -0.03550823 1.3447274 5.4351981e-39
-0.13556223 -0.034528416 1.3428334 6.8177837e-39
-0.12524192 -0.034980226 1.3450769 9.6772747e-39
-0.1169523 -0.036674958 1.3465002 1.1149906e-38
-0.15094954 -0.028650478 1.3470001 5.2504411e-39
-0.14444973 -0.026170287 1.3470001 5.3440703e-39
-0.13598287 -0.025657143 1.3470001 6.3578859e-39
-0.12641078 -0.026347913 1.3470001 9.3088453e-39
-0.11845049 -0.028650478 1.3470001 1.0966587e-38
-0.13521317 -0.018729715 1.3470001 6.5401136e-39
-0.12956858 -0.019242859 1.3470001 8.1096015e-39
-0.27030668 -0.19012001 1.358 2.7626011e-39
-0.26396191 -0.19314286 1.3520001 2.7626095e-39
-0.25366098 -0.19700573 1.3520001 2.5774951e-39
-0.24722287 -0.19700573 1.3520001 2.6700565e-39
-0.27030668 -0.18494669 1.3580002 2.8537205e-39
-0.26406047 -0.18548432 1.3525002 2.9452015e-39
-0.26437357 -0.17721356 1.35575 2.9455588e-39
-0.25644398 -0.17443499 1.3530911 3.0373957e-39
-0.24851049 -0.17125334 1.3520001 3.3121805e-39
-0.25382364 -0.16577144 1.3556001 3.1299459e-39
-0.24722287 -0.16481525 1.3520001 3.2214478e-39
-0.25306225 -0.15821779 1.3580002 2.7640402e-39
-0.24750997 -0.15535755 1.3545716 3.2221485e-39
-0.24336001 -0.14550096 1.3520001 3.9564751e-39
-0.2021824 -0.09495572 1.3564999 1.0052872e-38
-0.19700573 -0.094640002 1.3520001 5.8994119e-39
-0.20046668 -0.087946668 1.358 9.1269456e-39
-0.19490202 -0.084730923 1.3536365 6.1709555e-39
-0.18928002 -0.081120007 1.3520001 5.6184964e-39
-0.19218937 -0.07578934 1.358 5.4344793e-39
-0.18560953 -0.074359305 1.3525456 5.4348352e-39
-0.18360792 -0.065875106 1.3562857 5.4341163e-39
-0.17648324 -0.063120194 1.3526001 5.5270266e-39
-0.17415193 -0.054175727 1.3545002 5.6192377e-39
-0.16764802 -0.052277338 1.3520001 5.7103613e-39
-0.17330667 -0.047853336 1.358 5.7096354e-39
-0.16573767 -0.044216972 1.3547273 5.3426564e-39
-0.10258033 -0.044208258 1.3520001 1.1149535e-38
-0.16246751 -0.036693335 1.3554286 5.3426312e-39
-0.1576359 -0.035218734 1.3530002 5.3419193e-39
-0.11331049 -0.03476572 1.3520001 1.1516885e-38
-0.1068724 -0.036053333 1.3520001 1.08733e-38
-0.16166668 -0.028453335 1.358 5.6170502e-39
-0.15517589 -0.025359366 1.3540001 5.1582357e-39
-0.14807621 -0.023177143 1.3520001 5.1600196e-39
-0.12318224 -0.022747938 1.3520001 1.0229374e-38
-0.1151924 -0.025059048 1.3520001 1.1241738e-38
-0.10687239 -0.025752386 1.3520001 1.1149532e-38
-0.15261334 -0.019400001 1.358 4.884181e-39
-0.14409697 -0.016295759 1.3541819 5.3415662e-39
-0.13408503 -0.013934372 1.3525457 6.6323092e-39
-0.12427797 -0.015095375 1.3532859 9.4928891e-39
-0.11590068 -0.016185204 1.3556923 1.0873681e-38
-0.1072927 -0.01680381 1.3573333 1.0872585e-38
-0.13338581 -0.0054581701 1.3556923 5.8043646e-39
-0.1250973 -0.0058109532 1.3565 8.7556968e-39
-0.11769334 -0.0090533337 1.358 1.0505965e-38
-0.13321334 0.0012933334 1.358 5.1579316e-39
-0.27470237 -0.18406098 1.3651429 2.7622451e-39
-0.27229717 -0.17718858 1.368 2.9459217e-39
-0.26615348 -0.17190823 1.3648751 3.2200045e-39
-0.26495039 -0.16435879 1.3665717 3.3125463e-39
-0.25832096 -0.16356 1.363 2.9462721e-39
-0.26274288 -0.15677714 1.368 3.1296151e-39
-0.25610289 -0.15469907 1.365 2.9473539e-39
-0.25524512 -0.14845727 1.367375 3.222503e-39
-0.24644145 -0.14435047 1.3655 3.7731643e-39
-0.24481764 -0.13622668 1.3655 3.4980263e-39
-0.24276572 -0.12637717 1.368 3.866083e-39
-0.19691208 -0.074399471 1.3652222 7.7404448e-39
-0.20194288 -0.063840002 1.368 1.1821104e-38
-0.1953405 -0.065111317 1.367375 8.3807976e-39
-0.18732344 -0.063132197 1.3640001 5.61743e-39
-0.19542858 -0.05776 1.368 9.3931502e-39
-0.18406644 -0.054977965 1.3651431 5.0667828e-39
-0.18311553 -0.044800669 1.3675001 5.250095e-39
-0.17518479 -0.043116022 1.3643637 5.2508181e-39
-0.17230748 -0.0360227 1.3671668 5.15897e-39
-0.16726358 -0.034491193 1.36675 5.2507971e-39
-0.16523847 -0.026022024 1.366125 5.341555e-39
-0.15966572 -0.022067621 1.363 5.5255889e-39
-0.16181487 -0.016416002 1.368 5.4326898e-39
-0.15538831 -0.015239567 1.3648182 5.0653506e-39
-0.14747073 -0.01234262 1.3642499 5.3415648e-39
-0.11163619 -0.011682858 1.363 1.0873658e-38
-0.10663667 -0.011704287 1.3655 1.078072e-38
-0.15347658 -0.0070354291 1.368 4.8820202e-39
-0.14578904 -0.0052042864 1.3667501 5.2504411e-39
-0.1388962 -0.003894286 1.3630002 4.8831244e-39
-0.12137191 -0.0032452382 1.363 9.7691256e-39
-0.11416484 -0.0049387943 1.3653337 1.078255e-38
-0.10664818 -0.0065142866 1.3680001 1.0874369e-38
-0.14396572 0.0019542859 1.368 5.4344625e-39
-0.13449058 0.0046157576 1.3661819 5.7100082e-39
-0.12478739 0.0052036908 1.3648752 8.66312e-39
-0.11591097 0.0039080954 1.3675001 1.068965e-38
-0.13289145 0.011725715 1.368 5.525261e-39
-0.1250743 0.013028572 1.368 8.0177576e-39
-0.11856001 0.011725715 1.368 9.7669718e-39
-0.28221524 -0.18363619 1.3740001 3.0359608e-39
-0.27872574 -0.18189144 1.3740001 2.3945514e-39
-0.28290099 -0.17883365 1.3773335 2.9448638e-39
-0.27713534 -0.17513897 1.3765001 3.1285207e-39
-0.27485132 -0.16578656 1.3778888 3.1285151e-39
-0.27087429 -0.15833715 1.3740001 3.2210723e-39
-0.26633006 -0.15345451 1.3745558 3.4958655e-39
-0.26424471 -0.14530984 1.3773333 3.5891303e-39
-0.25517145 -0.1426343 1.3740002 3.4980165e-39
-0.26135334 -0.13658667 1.3790001 3.6806309e-39
-0.25520891 -0.13481589 1.3773333 3.7731769e-39
-0.24928287 -0.13412859 1.3740001 3.4980389e-39
-0.25189734 -0.12529202 1.3790001 3.8661068e-39
-0.24720195 -0.12556246 1.3754287 3.6827833e-39
-0.20152001 -0.052342862 1.3740001 1.1706275e-38
-0.1953043 -0.053324293 1.3740001 9.3956684e-39
-0.18974286 -0.052342862 1.3740001 3.7778432e-39
-0.20021144 -0.047108576 1.3740001 1.2988064e-38
-0.19521604 -0.044544604 1.375667 1.0781108e-38
-0.18887049 -0.043619052 1.3740001 4.5125496e-39
-0.18430002 -0.03510889 1.3767779 5.3404872e-39
-0.17672239 -0.032725241 1.3745003 5.0667673e-39
-0.1747562 -0.025504766 1.3773333 5.2497279e-39
-0.16880572 -0.023554288 1.3740001 5.1586028e-39
-0.17204668 -0.018386669 1.3790001 5.1575308e-39
-0.16639228 -0.015284128 1.3756667 5.1575266e-39
-0.16233104 -0.0058053071 1.3761431 5.3415536e-39
-0.15684162 -0.0039257146 1.3740001 5.1586e-39
-0.10393715 -0.003054921 1.3756666 1.1059125e-38
-0.16154002 0.0026266668 1.3790001 5.3412159e-39
-0.15448347 0.0052378569 1.3746253 5.1578812e-39
-0.1444663 0.0070662871 1.3740002 5.1575182e-39
-0.13740002 0.0078514293 1.3740001 5.7089138e-39
-0.11297335 0.0074152388 1.3740001 1.096659e-38
-0.10596509 0.0048076194 1.3765001 1.0875107e-38
-0.15347588 0.013119049 1.3773334 4.5153984e-39
-0.14357014 0.01535177 1.3757859 5.0656953e-39
-0.1350446 0.016488001 1.3740002 5.2479524e-39
-0.12562287 0.018320002 1.3740001 7.5585927e-39
-0.11494654 0.015973462 1.374667 1.0321578e-38
-0.10750572 0.015197146 1.3790001 1.0874391e-38
-0.14157735 0.024428003 1.3790001 4.7908979e-39
-0.13489293 0.024885083 1.3751112 4.9738795e-39
-0.12562287 0.024862859 1.3740003 7.1890899e-39
-0.11614658 0.024646385 1.3765 9.5847358e-39
-0.14052668 0.030206669 1.3790001 4.8820047e-39
-0.13439779 0.032833338 1.3789999 4.6997953e-39
-0.12589431 0.032263242 1.3770001 6.7281104e-39
-0.11863779 0.031082224 1.3790001 8.7546276e-39
-0.29150954 -0.18070954 1.3850001 3.1306661e-39
-0.28799209 -0.18246827 1.3850001 3.1285137e-39
-0.28594029 -0.17426085 1.3850001 2.9448596e-39
-0.28254005 -0.16593622 1.3850001 3.129234e-39
-0.27831906 -0.16356191 1.3850001 2.8540876e-39
-0.27492726 -0.15621296 1.3850001 3.038123e-39
-0.27128416 -0.14641431 1.3850001 3.4065299e-39
-0.26600796 -0.14201747 1.3850001 3.5891359e-39
-0.2656562 -0.13638954 1.3850001 3.7728083e-39
-0.25897306 -0.13146511 1.3850001 4.0486708e-39
-0.25721431 -0.12596905 1.3850001 3.9575625e-39
-0.22160001 -0.051442862 1.3850001 5.342285e-39
-0.22094049 -0.046826195 1.3850001 5.0667842e-39
-0.20972858 -0.032976191 1.3850001 3.8671367e-39
-0.19465376 -0.037121769 1.3850001 9.9535155e-39
-0.18774447 -0.031217461 1.3850001 5.7974842e-39
-0.18334764 -0.026380954 1.3850001 4.790549e-39
-0.17807144 -0.022423811 1.3850001 5.3422486e-39
-0.17505647 -0.016393879 1.3850001 5.1578756e-39
-0.17015715 -0.0079142861 1.3850001 4.8841852e-39
-0.16699146 -0.0044847624 1.3850001 5.2504411e-39
-0.16356191 0.0039571431 1.3850001 5.2490202e-39
-0.1022262 0.0065952386 1.3850001 1.1057709e-38
-0.15545921 0.016770748 1.3850001 5.0660485e-39
-0.1490524 0.018466666 1.3850001 4.9731368e-39
-0.10420478 0.015640138 1.3850001 1.1149899e-38
-0.14641429 0.025061905 1.3850001 4.9742074e-39
-0.11211906 0.026380954 1.3850001 1.0231173e-38
-0.10816191 0.022423811 1.3850001 1.0782545e-38
-0.14324857 0.032448571 1.3850001 4.881646e-39
-0.1353343 0.037724763 1.3850001 4.9738599e-39
-0.12311112 0.037373021 1.3850001 7.280931e-39
-0.1160762 0.032976195 1.3850001 9.2166735e-39
-0.13322383 0.040890478 1.3850001 5.2500992e-39
-0.12662858 0.040890478 1.3850001 6.08059e-39
-0.30180192 -0.18214478 1.396 3.037065e-39
-0.29468 -0.18348002 1.3900002 3.1285151e-39
-0.28991431 -0.18665716 1.3900001 3.2199877e-39
-0.30313146 -0.17948572 1.396 2.9448511e-39
-0.295531 -0.17493001 1.3915002 3.1288809e-39
-0.28991431 -0.17209524 1.3900001 3.0363167e-39
-0.29486626 -0.16522349 1.3953333 3.1285193e-39
-0.28673717 -0.16335809 1.3900002 3.2203492e-39
-0.29116577 -0.15555429 1.3960001 3.037753e-39
-0.28554338 -0.15405765 1.3945 3.3129008e-39
-0.27866191 -0.15422381 1.3900001 2.9462847e-39
-0.2811943 -0.14558287 1.396 3.8646564e-39
-0.27576488 -0.14531493 1.3913335 3.4972962e-39
-0.27436024 -0.13651344 1.3946668 3.5891317e-39
-0.26661527 -0.1321162 1.3900002 3.865713e-39
-0.26517376 -0.12462872 1.3921429 3.4069223e-39
-0.25496575 -0.1209962 1.3900002 3.3161532e-39
-0.24755239 -0.12046667 1.3900001 3.3168679e-39
-0.26398435 -0.11537312 1.396 3.683128e-39
-0.25478765 -0.11451742 1.3912858 4.1415853e-39
-0.24755239 -0.11517143 1.3900001 3.9586219e-39
-0.25379974 -0.10598509 1.3940001 4.3281247e-39
-0.24494824 -0.10494269 1.3916366 4.7894532e-39
-0.25216639 -0.098827943 1.3960001 5.158956e-39
-0.24408534 -0.095878869 1.3944001 5.4344709e-39
-0.2355378 -0.093239367 1.3920001 5.527021e-39
-0.24170744 -0.086950861 1.396 5.5277399e-39
-0.23692118 -0.084823623 1.396 5.5281112e-39
-0.22734858 -0.051851433 1.396 5.251146e-39
-0.2255362 -0.046436194 1.3930001 5.2507957e-39
-0.21313335 -0.033095241 1.3900001 5.3418997e-39
-0.19636509 -0.032212701 1.3900002 1.1246784e-38
-0.20075811 -0.023931429 1.396 1.3102554e-38
-0.19538154 -0.025446286 1.3918002 1.2350588e-38
-0.18665716 -0.02401769 1.3900002 5.246837e-39
-0.1933946 -0.016670184 1.3960001 1.2256216e-38
-0.18421 -0.015899528 1.3915002 4.4192582e-39
-0.17672858 -0.012576192 1.3900001 5.2497041e-39
-0.19012192 -0.0093066674 1.396 8.6684855e-39
-0.18412594 -0.0063477252 1.3953333 4.4192455e-39
-0.17542043 -0.0049186395 1.3908573 5.0667729e-39
-0.18214478 0.0013295239 1.396 5.1564504e-39
-0.1739666 0.0044673593 1.3943638 5.0649821e-39
-0.16655979 0.0062930956 1.3907502 5.1571917e-39
-0.099285722 0.0066190483 1.3900001 1.1149913e-38
-0.17257218 0.014092954 1.396 5.0653394e-39
-0.1643139 0.015398477 1.3936 5.341213e-39
-0.15753335 0.019857144 1.3900001 5.2497083e-39
-0.10193334 0.018533334 1.3900001 1.1700904e-38
-0.099285722 0.014561906 1.3900001 1.1425041e-38
-0.16087238 0.023931429 1.396 5.4330135e-39
-0.15518542 0.025203178 1.3926668 5.1585888e-39
-0.14959049 0.026476193 1.3900001 4.8830907e-39
-0.10537525 0.025681904 1.3900002 1.0874739e-38
-0.099714294 0.027920002 1.396 1.1056976e-38
-0.15234256 0.033659369 1.395 4.6065193e-39
-0.14636025 0.035763573 1.3907502 4.7908979e-39
-0.11357596 0.036094528 1.3907502 9.4007074e-39
-0.10584916 0.034224767 1.3928001 1.0505252e-38
-0.099607155 0.034529049 1.3945 1.114918e-38
-0.14369117 0.043848984 1.3951429 5.3426354e-39
-0.1354264 0.045957655 1.3909231 5.5256029e-39
-0.12405987 0.045576867 1.3900001 6.3582629e-39
-0.11421334 0.045158096 1.3945 8.570944e-39
-0.10680509 0.042101592 1.3960001 9.9535015e-39
-0.14225906 0.054510482 1.396 5.6181573e-39
-0.13479675 0.055359736 1.3934287 5.8029045e-39
-0.12463595 0.055693574 1.3922499 6.7259524e-39
-0.11655492 0.055396829 1.396 8.1074603e-39
-0.13339557 0.064260326 1.3960001 5.6196174e-39
-0.12719113 0.064260326 1.3960001 6.1760072e-39
-0.31300527 -0.18057859 1.4045 2.9459231e-39
-0.30844003 -0.18025716 1.4020001 3.0359622e-39
-0.31275603 -0.17500402 1.4070001 2.6707796e-39
-0.30661058 -0.17428105 1.4047273 2.6700593e-39
-0.30377707 -0.16627179 1.4051251 2.9452141e-39
-0.2977581 -0.16156381 1.4020001 2.8537233e-39
-0.30150002 -0.15812001 1.4070001 3.0359622e-39
-0.29633066 -0.15462299 1.4036669 2.9459189e-39
-0.29256666 -0.14561334 1.4070001 3.1295913e-39
-0.28622952 -0.14392836 1.4036669 3.4047489e-39
-0.29078001 -0.13802001 1.4070001 3.5884255e-39
-0.28374508 -0.1356528 1.4062859 3.4054776e-39
-0.27772954 -0.13352382 1.4020001 3.4990899e-39
-0.28006002 -0.12998001 1.4070001 3.1324752e-39
-0.27505103 -0.12526307 1.4042222 3.3150742e-39
-0.27311835 -0.11513525 1.4057502 3.4990941e-39
-0.26749274 -0.11171493 1.4020002 3.8653599e-39
-0.26404172 -0.1047136 1.4047273 3.8678808e-39
-0.25770098 -0.10014287 1.4020001 4.9745689e-39
-0.26264003 -0.097820006 1.4070001 4.8820117e-39
-0.25542167 -0.094945453 1.404143 5.527014e-39
-0.24968953 -0.092131436 1.4020001 5.8032169e-39
-0.25192001 -0.087100007 1.4070001 5.8943448e-39
-0.2463468 -0.084897742 1.4038751 5.7113997e-39
-0.23900764 -0.081449531 1.4020001 5.7125207e-39
-0.24314605 -0.078073025 1.4053334 5.9869104e-39
-0.23840159 -0.077979371 1.4036669 5.5281028e-39
-0.23450002 -0.064320005 1.4070001 5.8025107e-39
-0.23274812 -0.054847147 1.4045 5.4351799e-39
-0.23140812 -0.04815191 1.4045 5.0681897e-39
-0.22832572 -0.04406286 1.4020001 5.342278e-39
-0.20162097 -0.020028573 1.4020001 1.3836867e-38
-0.19628002 -0.012017144 1.4020001 1.3831875e-38
-0.19372125 -0.0059261234 1.4055716 1.3089546e-38
-0.18693334 -0.0026704762 1.4020001 3.3168693e-39
-0.1832197 0.0057966146 1.4042222 4.7891127e-39
-0.17758667 0.0080114296 1.4020001 4.9738711e-39
-0.18090001 0.012060001 1.4070001 4.6983814e-39
-0.17690447 0.014708256 1.4036667 4.8813139e-39
-0.16824001 0.017358096 1.4020001 5.4326926e-39
-0.17152001 0.021440001 1.4070001 5.6159965e-39
-0.16579154 0.024068216 1.4038751 5.7085312e-39
-0.16214001 0.032160003 1.4070001 5.1582315e-39
-0.15743561 0.035768215 1.4038751 5.0663932e-39
-0.15356205 0.043412115 1.4055716 5.5259392e-39
-0.14735468 0.047336001 1.404 5.4344765e-39
-0.10412633 0.045807708 1.4033638 1.0229019e-38
-0.097820006 0.042880006 1.4070001 1.1241725e-38
-0.14491192 0.054842383 1.4045 5.6181531e-39
-0.11189296 0.055278864 1.4020001 8.9382874e-39
-0.10713573 0.054909058 1.4061668 9.3989208e-39
-0.14208858 0.062917426 1.4055716 5.4352121e-39
-0.13680287 0.067287944 1.4036667 5.619609e-39
-0.12328699 0.066316828 1.4020002 7.0046748e-39
-0.11456259 0.064730339 1.4034288 8.3836562e-39
-0.10739144 0.064511433 1.4070002 1.3183608e-38
-0.13467 0.071690008 1.4070001 4.6976345e-39
-0.12676401 0.071556009 1.4070001 2.7630116e-39
-0.11531443 0.07247933 1.4055716 1.7244523e-38
-0.10787001 0.07303001 1.4070001 2.3417321e-38
-0.12354801 0.086563997 1.4070001 1.963589e-38
-0.11926001 0.083080009 1.4070001 2.2407495e-38
-0.13266 0.092460006 1.4070001 2.1013795e-38
-0.12730001 0.092460006 1.4070001 2.1111339e-38
-0.32298431 -0.17396288 1.4160001 2.4863855e-39
-0.31778085 -0.17436615 1.4130002 2.5789441e-39
-0.32118958 -0.16802762 1.419 2.761906e-39
-0.31452444 -0.16418521 1.4162728 3.0374167e-39
-0.30709201 -0.16229315 1.4130001 3.1278061e-39
-0.31218001 -0.15676573 1.419 2.9448497e-39
-0.306128 -0.15373544 1.4160001 3.1292466e-39
-0.30184481 -0.14574479 1.4170002 3.1288795e-39
-0.29632631 -0.14345315 1.4130001 3.2217828e-39
-0.30136859 -0.13919716 1.419 3.3121903e-39
-0.29497114 -0.13497493 1.4156667 3.4962327e-39
-0.28753433 -0.1323286 1.4130001 3.3139994e-39
-0.29287392 -0.12529676 1.419 3.5902135e-39
-0.28490111 -0.12500027 1.4140911 3.4072782e-39
-0.28401262 -0.11597543 1.416 3.8664305e-39
-0.27856287 -0.11573144 1.4130001 3.5912799e-39
-0.2831243 -0.10743857 1.419 3.7731699e-39
-0.27496114 -0.10547847 1.4157693 3.774609e-39
-0.26779717 -0.10092857 1.4130001 4.4203259e-39
-0.26594117 -0.093588576 1.4160001 5.2504481e-39
-0.25882575 -0.091060013 1.4130001 5.6188607e-39
-0.26488 -0.085140005 1.4189999 5.1593315e-39
-0.25635859 -0.084443569 1.4130001 5.7106878e-39
-0.26172668 -0.078833342 1.419 5.7103571e-39
-0.25411481 -0.075849056 1.418 5.7103403e-39
-0.24530193 -0.074381903 1.4143335 5.6192026e-39
-0.23819144 -0.072668575 1.4130001 5.9858328e-39
-0.25001431 -0.068922862 1.419 5.1607552e-39
-0.24355546 -0.065270297 1.416 5.7110437e-39
-0.23819144 -0.064594291 1.4130001 5.8943504e-39
-0.24306411 -0.054636333 1.419 5.4359044e-39
-0.23746288 -0.053863816 1.4140003 5.252232e-39
-0.24190573 -0.047300003 1.419 5.3437088e-39
-0.23557572 -0.04522286 1.4175 5.0674834e-39
-0.22839144 -0.041894287 1.419 5.9847776e-39
-0.20079526 -0.0040428578 1.4150002 1.5392678e-38
-0.1964743 -0.0033642859 1.4130001 1.2813716e-38
-0.18974572 -0.0013457143 1.4130001 3.3064534e-39
-0.20226382 0.0031533334 1.419 4.5139691e-39
-0.19533587 0.0050324677 1.4162728 4.4185267e-39
-0.18920743 0.006190286 1.4130001 4.6961842e-39
-0.19257858 0.01419 1.419 4.9738374e-39
-0.18543525 0.014819367 1.4143335 4.7901861e-39
-0.17898001 0.017494287 1.4130001 4.9735123e-39
-0.18349105 0.02373429 1.4181429 4.8820272e-39
-0.17590044 0.024981763 1.4148463 5.1575266e-39
-0.16821429 0.028260002 1.4130001 5.5252176e-39
-0.18244287 0.031082859 1.419 5.1579022e-39
-0.17500286 0.034731429 1.4181429 5.1582399e-39
-0.16620402 0.035558861 1.4142002 5.3422584e-39
-0.17230716 0.043921433 1.419 5.1582539e-39
-0.16413958 0.044896051 1.4153078 5.2504299e-39
-0.15529543 0.048714865 1.4130001 5.4344667e-39
-0.10092857 0.048445717 1.4130001 1.1059835e-38
-0.096891433 0.048445717 1.4130001 1.133427e-38
-0.16352288 0.053606674 1.4189999 5.6170643e-39
-0.15483144 0.055201594 1.4136668 5.5255903e-39
-0.14937429 0.056520004 1.4130001 5.6177943e-39
-0.10227429 0.055174291 1.4130001 1.004495e-38
-0.096546553 0.055695925 1.4164287 1.1789511e-38
-0.16082001 0.063517153 1.419 5.7096032e-39
-0.15489827 0.065140888 1.418077 5.4348338e-39
-0.1470193 0.065267146 1.4130001 5.5270364e-39
-0.10272286 0.064444765 1.4130001 1.659126e-38
-0.097094297 0.063382864 1.4160001 2.0838351e-38
-0.15169786 0.074666433 1.4189999 5.8954588e-39
-0.14430097 0.075521916 1.4160001 5.3429997e-39
-0.13510972 0.077243999 1.4130001 4.7927028e-39
-0.12515144 0.076705724 1.4130001 1.4104131e-38
-0.1156346 0.077341281 1.4136668 2.2220223e-38
-0.10496572 0.074014291 1.4130001 2.3417689e-38
-0.14360192 0.084180951 1.4180001 6.5372549e-39
-0.13462049 0.084810965 1.4135002 1.7241299e-38
-0.126228 0.083703436 1.4130001 2.2123707e-38
-0.11707715 0.082088575 1.4130001 2.3325494e-38
-0.1419 0.093248576 1.419 2.1945783e-38
-0.13551398 0.09238635 1.4150001 2.1574138e-38
-0.12784286 0.090162866 1.4130001 2.046057e-38
-0.32300001 -0.1642143 1.4250001 2.8533814e-39
-0.32164288 -0.15878573 1.4250001 3.4051244e-39
-0.31621429 -0.15505359 1.4250001 2.9452127e-39
-0.31078574 -0.14792858 1.4250001 3.0366922e-39
-0.30739287 -0.14453572 1.4250001 3.1285249e-39
-0.30400002 -0.13707143 1.4250001 3.4036685e-39
-0.29992861 -0.13300002 1.4250001 3.5884297e-39
-0.29653573 -0.12417857 1.4250001 3.4973019e-39
-0.29178575 -0.1167143 1.4250001 3.8653557e-39
-0.28907144 -0.11264286 1.4250001 3.8657088e-39
-0.28726193 -0.10721429 1.4250001 3.7731671e-39
-0.27821431 -0.10178572 1.4250001 3.1335584e-39
-0.27346429 -0.097035721 1.4250001 4.7894546e-39
-0.27007145 -0.082785718 1.4250001 5.2518775e-39
-0.26735717 -0.080071434 1.4250001 5.4355597e-39
-0.27007145 -0.077357151 1.4250001 5.6195768e-39
-0.26464289 -0.075095244 1.4250001 5.8025471e-39
-0.25785714 -0.071928576 1.4250001 6.0780634e-39
-0.25270003 -0.065957144 1.4250001 5.7110634e-39
-0.24835716 -0.062428575 1.4250001 5.6199369e-39
-0.25107145 -0.057000004 1.4250001 5.7114305e-39
-0.24767859 -0.054285716 1.4250001 5.5273854e-39
-0.24347143 -0.044242859 1.4250001 5.1596734e-39
-0.23750001 -0.042071432 1.4250001 4.9753088e-39
-0.19950001 0.0095000006 1.4250001 4.7901552e-39
-0.19497621 0.015833335 1.4250001 4.9742004e-39
-0.19135715 0.020357145 1.4250001 5.0667701e-39
-0.18796431 0.024428573 1.4250001 4.9742144e-39
-0.18321432 0.035867352 1.4250001 5.2497433e-39
-0.18050002 0.042071432 1.4250001 5.2504383e-39
-0.1759762 0.044785719 1.4250001 5.1571721e-39
-0.17235716 0.050214291 1.4250001 6.07589e-39
-0.1680143 0.055100001 1.4250001 5.8000374e-39
-0.16460207 0.064948991 1.4250001 5.7096158e-39
-0.15742858 0.074642859 1.4250001 5.8039442e-39
-0.1528143 0.082242861 1.4250001 5.1600392e-39
-0.14702383 0.087309532 1.4250001 4.5204767e-39
-0.14589286 0.094321445 1.4250001 2.0748324e-38
-0.3407743 -0.17107144 1.437 2.6700677e-39
-0.33461574 -0.17175573 1.437 2.7615291e-39
-0.32844859 -0.17172001 1.4310001 2.7611773e-39
-0.33393145 -0.16559717 1.4370002 2.8537219e-39
-0.32872975 -0.1636783 1.4346001 2.5785896e-39
-0.33256289 -0.15738572 1.437 2.9437623e-39
-0.32558915 -0.15486974 1.4340001 2.9444966e-39
-0.31618288 -0.15127715 1.4310001 2.6700635e-39
-0.32216173 -0.14588974 1.4370002 2.9459161e-39
-0.31579092 -0.14441846 1.4342729 3.1288893e-39
-0.30936858 -0.14037429 1.4310001 3.2203576e-39
-0.31577224 -0.13444078 1.4364548 2.9469951e-39
-0.30755147 -0.13401431 1.4310001 3.3125729e-39
-0.3127186 -0.12659286 1.437 3.1317479e-39
-0.30534288 -0.12568429 1.4345001 3.4973047e-39
-0.29846573 -0.1212943 1.4310001 3.4976536e-39
-0.30354914 -0.11687601 1.4370002 3.1313906e-39
-0.29665944 -0.11407488 1.4328001 3.5905653e-39
-0.29367796 -0.10609756 1.436143 3.6813274e-39
-0.28483719 -0.1022143 1.4310001 3.6842154e-39
-0.28469887 -0.096264005 1.4358001 4.4214091e-39
-0.27743882 -0.094815925 1.4310001 4.880581e-39
-0.28055716 -0.084851436 1.437 5.2515201e-39
-0.27602074 -0.084716432 1.4347501 5.4344835e-39
-0.27453542 -0.075818859 1.4370002 5.619581e-39
-0.26712 -0.072231434 1.4310001 5.5274036e-39
-0.26358637 -0.066995241 1.4356667 5.8025527e-39
-0.25639716 -0.064097151 1.432 5.9865783e-39
-0.26139715 -0.057480004 1.437 5.8018353e-39
-0.25604519 -0.054104008 1.4346001 5.6188831e-39
-0.24940288 -0.050425716 1.4310001 5.4348366e-39
-0.25501052 -0.04607524 1.4370002 5.3426424e-39
-0.24872145 -0.04429286 1.4310001 5.2508041e-39
-0.25044858 -0.039688572 1.437 4.9749389e-39
-0.24425144 -0.037232857 1.4347501 4.883102e-39
-0.23490287 -0.035502858 1.434 5.0656982e-39
-0.22791526 -0.035932384 1.4330001 5.1582441e-39
-0.23471004 -0.025774766 1.4370002 5.1582483e-39
-0.22855145 -0.027371431 1.437 5.1585986e-39
-0.2312886 -0.015054287 1.437 5.5252288e-39
-0.22855145 -0.012317143 1.437 5.0667786e-39
-0.23128858 -0.0095800003 1.437 5.3426326e-39
-0.22694716 -0.0054700002 1.4355 5.3419193e-39
-0.22307716 0.0031933337 1.437 5.0649863e-39
-0.21760288 0.0041057146 1.437 4.7898483e-39
-0.20349145 0.0081971437 1.434 4.3295498e-39
-0.20226859 0.01503524 1.4350002 4.6983394e-39
-0.1976143 0.017717144 1.4310001 4.9742186e-39
-0.20118001 0.021897145 1.437 5.1575575e-39
-0.19543666 0.024943637 1.4331819 5.0660499e-39
-0.18943715 0.028620003 1.4310001 5.0667701e-39
-0.19357683 0.035126671 1.4370002 4.9745759e-39
-0.18807429 0.035434287 1.4310001 5.341569e-39
-0.19023144 0.042425718 1.437 5.2493719e-39
-0.18481286 0.045434289 1.4347501 5.3419137e-39
-0.1785343 0.046337146 1.4310001 5.2493663e-39
-0.1836623 0.052826859 1.4370002 5.1582483e-39
-0.17595288 0.055312868 1.434 5.52487e-39
-0.17311828 0.065091439 1.4358002 5.3422682e-39
-0.16763143 0.068142861 1.4310001 5.7110634e-39
-0.17107144 0.072534293 1.437 5.1603979e-39
-0.16508502 0.074852154 1.4355001 5.0685624e-39
-0.1594543 0.07768286 1.4310001 5.8046673e-39
-0.16121773 0.082935438 1.4370002 5.7117766e-39
-0.15502095 0.086830489 1.4320002 2.8591477e-39
-0.1541691 0.09528131 1.4348183 1.4658376e-38
-0.14855143 0.092674285 1.4310001 1.6415127e-38
-0.34494573 -0.17178573 1.4430001 2.8537541e-39
-0.35190001 -0.16836001 1.4490001 2.8519268e-39
-0.34518671 -0.16502669 1.444 2.210886e-39
-0.33807433 -0.16354002 1.4430001 2.8537219e-39
-0.34440863 -0.15672858 1.4490002 2.4860268e-39
-0.33572206 -0.15499227 1.4438573 2.7600927e-39
-0.33378357 -0.14727359 1.4452502 2.7608186e-39
-0.32747146 -0.14516942 1.4438573 2.8533688e-39
-0.32507768 -0.13495821 1.4446363 2.5789315e-39
-0.32278699 -0.12442762 1.4463335 3.2225044e-39
-0.31526119 -0.12341087 1.4430001 3.0395565e-39
-0.32154003 -0.11592001 1.4490001 3.6806183e-39
-0.3150405 -0.11555669 1.4445 3.4976592e-39
-0.30764371 -0.11406573 1.4430001 3.5894961e-39
-0.31326002 -0.10902002 1.4490001 3.5884255e-39
-0.30407372 -0.10548458 1.4460001 3.7728182e-39
-0.29602119 -0.1014223 1.4430001 3.6838357e-39
-0.29470956 -0.095019057 1.4460001 4.2373598e-39
-0.28905815 -0.092993341 1.4430002 4.6979932e-39
-0.29325002 -0.085560009 1.4490002 4.8831076e-39
-0.28630954 -0.085663825 1.443 5.0674848e-39
-0.29118001 -0.078660004 1.4490001 5.4348422e-39
-0.28422731 -0.074528053 1.4468184 5.5273854e-39
-0.27678117 -0.072287433 1.4430001 5.6199425e-39
-0.27367064 -0.065214299 1.4481431 5.5270336e-39
-0.26729858 -0.063904293 1.4430001 5.8021884e-39
-0.27186 -0.059340004 1.4490001 5.5259518e-39
-0.26600975 -0.054465145 1.4442 5.6181391e-39
-0.26569015 -0.044465721 1.4468184 5.4348324e-39
-0.25882384 -0.04351905 1.4430002 5.2511572e-39
-0.26082003 -0.037260003 1.4490001 5.0656968e-39
-0.25503302 -0.036145195 1.4446363 5.0656953e-39
-0.2466843 -0.032295719 1.4430001 4.882739e-39
-0.25364402 -0.026772002 1.4490002 5.0663946e-39
-0.24543266 -0.024363676 1.4442859 5.1585916e-39
-0.23637715 -0.020614287 1.4430001 5.525226e-39
-0.24412097 -0.015764127 1.4463335 5.342271e-39
-0.23637716 -0.015117145 1.4430001 5.2500768e-39
-0.24150002 -0.0069000009 1.4490001 5.2500684e-39
-0.23561117 -0.0051275329 1.4451818 5.3419179e-39
-0.22950573 -0.0027485716 1.4430001 5.4330415e-39
-0.23276001 0.0041400003 1.4490002 5.1578812e-39
-0.22527216 0.0068814289 1.4445 4.88203e-39
-0.21562167 0.0068934709 1.447286 4.7894602e-39
-0.20751716 0.0082457149 1.4430001 4.6986925e-39
-0.224388 0.013524001 1.4490002 4.6072339e-39
-0.21564287 0.015171747 1.4483335 4.8816558e-39
-0.20751718 0.015117144 1.4430002 4.8820019e-39
-0.21246736 0.023433883 1.447286 4.7901889e-39
-0.20540459 0.025298858 1.4435999 5.0656827e-39
-0.21114001 0.033120003 1.4490001 5.2490146e-39
-0.2051508 0.03442191 1.4456668 4.9738472e-39
-0.19817202 0.037655432 1.4430001 5.1586e-39
-0.20316668 0.043086667 1.4490002 4.9745591e-39
-0.19422001 0.045720004 1.4437499 5.0657094e-39
-0.20010002 0.051060002 1.4490001 4.9735151e-39
-0.19370918 0.054560006 1.4466002 5.1571945e-39
-0.18642575 0.056380823 1.4438571 5.0660569e-39
-0.19182001 0.062100004 1.4490001 4.9752906e-39
-0.18398988 0.064416885 1.4446363 5.1582371e-39
-0.17728287 0.067340001 1.4430001 5.4351813e-39
-0.18266287 0.070997141 1.4475002 5.1596748e-39
-0.1753089 0.075351432 1.4443334 5.2522306e-39
-0.16903715 0.078334294 1.4430001 5.5273952e-39
-0.17397512 0.084131844 1.4481431 5.2511642e-39
-0.16641638 0.086146764 1.444091 5.7103557e-39
-0.16450344 0.094787441 1.4466002 4.6079654e-39
-0.16303715 0.10428859 1.4490002 1.9637651e-38
-0.15752001 0.10318144 1.4445 2.2037268e-38
-0.3556667 -0.1649 1.4550002 2.7618822e-39
-0.35127857 -0.1552 1.455 2.3941871e-39
-0.34559718 -0.15215145 1.455 2.4853023e-39
-0.3367286 -0.14411429 1.455 2.8526737e-39
-0.33349526 -0.13626193 1.4550002 2.9452029e-39
-0.33118573 -0.12887144 1.455 3.2210709e-39
-0.32841432 -0.1261 1.455 3.3139812e-39
-0.32495004 -0.11432144 1.455 3.4061838e-39
-0.32010001 -0.10808572 1.455 3.2225352e-39
-0.31376535 -0.1043245 1.4550002 3.6802624e-39
-0.3076286 -0.10115715 1.455 4.0479617e-39
-0.30347145 -0.098385721 1.4550002 4.233425e-39
-0.29792863 -0.08452858 1.4550002 4.9749332e-39
-0.29446432 -0.07482858 1.455 5.6188789e-39
-0.28961429 -0.072057143 1.455 5.5270322e-39
-0.28407148 -0.066316329 1.4550002 5.527384e-39
-0.2785286 -0.063742861 1.455 5.618509e-39
-0.28130001 -0.059585717 1.455 5.4352023e-39
-0.27544922 -0.055582549 1.455 5.3426396e-39
-0.27229288 -0.044342861 1.455 5.6181489e-39
-0.27021429 -0.03741429 1.455 5.0667884e-39
-0.26420957 -0.03464286 1.4550002 5.1568232e-39
-0.2591286 -0.031871431 1.455 5.156826e-39
-0.25691146 -0.024111433 1.455 5.250074e-39
-0.25247714 -0.014688573 1.455 5.2493551e-39
-0.24804287 -0.012471429 1.455 5.3423005e-39
-0.24527144 -0.0069285715 1.455 5.2507915e-39
-0.23649526 0.0060047619 1.4550002 5.1578798e-39
-0.21478574 0.006928572 1.4550002 4.789449e-39
-0.2314143 0.013857143 1.455 4.9727837e-39
-0.22402382 0.017090477 1.4550002 4.7901819e-39
-0.2120143 0.015242858 1.455 5.0649625e-39
-0.22125241 0.021709528 1.4550002 4.8816544e-39
-0.21644859 0.026882861 1.455 4.8820188e-39
-0.21386191 0.03464286 1.4550002 5.0657094e-39
-0.2120143 0.041571431 1.455 4.6990582e-39
-0.20647144 0.046421431 1.455 4.8830837e-39
-0.20259142 0.054597147 1.455 4.9735151e-39
-0.19815716 0.058200002 1.455 4.9735081e-39
-0.19353811 0.06512858 1.4550002 5.0664016e-39
-0.18984286 0.067900002 1.455 5.1589462e-39
-0.1926143 0.070671432 1.455 5.1585916e-39
-0.18476193 0.07482858 1.4550002 5.0678491e-39
-0.18152858 0.081757151 1.455 5.1596734e-39
-0.17783336 0.08637619 1.4550002 5.2511824e-39
-0.1732143 0.094822459 1.4550002 4.7909119e-39
-0.17044286 0.10531429 1.455 1.2166288e-38
-0.16582382 0.1067 1.4550002 1.6227515e-38
-0.36374861 -0.16356143 1.4647501 2.5782154e-39
-0.35759717 -0.1600143 1.4610001 2.8540792e-39
-0.36364451 -0.15538983 1.466143 2.7608228e-39
-0.3564505 -0.15455239 1.4620001 2.6696978e-39
-0.36186004 -0.14949429 1.4670001 2.9452183e-39
-0.35388061 -0.14540003 1.4652002 2.7608102e-39
-0.34475321 -0.14481561 1.4610003 2.3938312e-39
-0.35068288 -0.13831715 1.4670001 2.8519268e-39
-0.34447083 -0.13527526 1.4643335 2.8530086e-39
-0.33742142 -0.13427287 1.4610001 3.0377558e-39
-0.34389675 -0.12714002 1.4670002 2.8537275e-39
-0.33609119 -0.12503301 1.463182 3.0377572e-39
-0.3297686 -0.12244572 1.4610001 2.8558841e-39
-0.33500731 -0.11559842 1.4663334 2.7644059e-39
-0.3297686 -0.11688001 1.4610001 3.223945e-39
-0.32451209 -0.10559397 1.4610002 3.2228758e-39
-0.31863716 -0.10296573 1.4610001 3.681333e-39
-0.3246029 -0.098265722 1.4670002 3.4068971e-39
-0.31469804 -0.095062874 1.4648575 3.682056e-39
-0.30486315 -0.093266994 1.4616668 4.1430258e-39
-0.31156287 -0.085225724 1.4670002 4.5135936e-39
-0.30528286 -0.085033342 1.4636668 4.7901678e-39
-0.31156287 -0.078240007 1.4670001 5.1582693e-39
-0.30517238 -0.075418584 1.4665002 5.526319e-39
-0.29915717 -0.075137153 1.4610001 5.7103823e-39
-0.30178288 -0.068460003 1.4670001 6.0780466e-39
-0.29475433 -0.06413316 1.4640002 5.6188761e-39
-0.28709814 -0.063541912 1.4610002 5.5266567e-39
-0.29288173 -0.056674864 1.4658002 5.6188733e-39
-0.28592286 -0.05535559 1.4631821 5.2518817e-39
-0.27967715 -0.052874289 1.4610001 4.9760235e-39
-0.28481758 -0.046105724 1.4670002 5.434838e-39
-0.27773216 -0.044546433 1.4617501 5.4344807e-39
-0.28082573 -0.036325715 1.4670001 5.0671233e-39
-0.27502647 -0.034507859 1.4640001 5.0664156e-39
-0.26854575 -0.033394288 1.4610001 5.340504e-39
-0.27364042 -0.025348166 1.4670002 5.0653436e-39
-0.2652033 -0.024667347 1.4622859 5.157898e-39
-0.26401302 -0.015966032 1.4650002 5.157877e-39
-0.25741431 -0.015305716 1.4610002 5.5252133e-39
-0.26126572 -0.0097800009 1.4670001 5.8017918e-39
-0.25495097 -0.0059555853 1.464273 5.2500796e-39
-0.24795258 -0.0036177149 1.4610001 4.7919811e-39
-0.25195146 0.0032600004 1.4670002 5.0660555e-39
-0.24466114 0.006138287 1.4646001 5.1585916e-39
-0.23793431 0.0097400006 1.4610001 5.1578756e-39
-0.21288858 0.0097400006 1.4610001 5.1578728e-39
-0.24263716 0.013505715 1.4670002 4.9745563e-39
-0.23622411 0.015724491 1.4627146 4.8809412e-39
-0.2281943 0.018088572 1.4610001 4.7898315e-39
-0.21288858 0.012522858 1.4610001 5.3411864e-39
-0.23416114 0.024869146 1.4670001 4.974199e-39
-0.22562259 0.025436107 1.4615456 4.9738458e-39
-0.23122716 0.034230001 1.4670001 4.9741892e-39
-0.22453494 0.034866352 1.4643334 4.974206e-39
-0.21775858 0.035481431 1.4610001 4.7901959e-39
-0.22494003 0.041914292 1.4670002 4.9735109e-39
-0.21550477 0.045518093 1.4630002 4.7901847e-39
-0.21319787 0.054085001 1.4655001 4.6983548e-39
-0.20593143 0.057048582 1.4610002 4.9738711e-39
-0.21166715 0.062172864 1.4670001 4.9738486e-39
-0.20472923 0.065458097 1.4623336 5.0656911e-39
-0.19786116 0.065953717 1.4610001 5.157884e-39
-0.20406409 0.074406132 1.466143 4.8827502e-39
-0.1955453 0.075868174 1.4635718 4.8827362e-39
-0.18691525 0.078383818 1.4610002 5.0678435e-39
-0.19348745 0.083481722 1.4658002 4.8831006e-39
-0.18559931 0.085315004 1.4625002 5.0674974e-39
-0.18290097 0.094943821 1.4660001 5.34335e-39
-0.17838113 0.094895437 1.4610001 5.15897e-39
-0.18162858 0.10199144 1.4670001 5.8921896e-39
-0.1746359 0.10552668 1.4643335 1.0230838e-38
-0.16836287 0.10574858 1.4610001 1.8073939e-38
-0.36895144 -0.16132858 1.473 2.7604501e-39
-0.37175718 -0.15852287 1.473 2.3934696e-39
-0.36801621 -0.15291145 1.473 2.484952e-39
-0.36193717 -0.14589715 1.473 2.8530058e-39
-0.3577286 -0.14168859 1.473 2.760813e-39
-0.35323948 -0.13495487 1.473 2.7608088e-39
-0.34744096 -0.1248543 1.473 2.6700579e-39
-0.34463525 -0.11830764 1.473 2.855161e-39
-0.33715338 -0.11176097 1.473 2.8558911e-39
-0.33341241 -0.10708477 1.473 3.3143553e-39
-0.32967144 -0.10240858 1.473 3.498371e-39
-0.32265717 -0.096797146 1.473 3.4065454e-39
-0.31704575 -0.085574292 1.473 4.3288506e-39
-0.31395945 -0.075473718 1.473 5.250102e-39
-0.31003144 -0.068740003 1.473 5.7103277e-39
-0.3037186 -0.065934293 1.473 5.9858454e-39
-0.29670429 -0.054010004 1.473 5.7107144e-39
-0.29263601 -0.046855431 1.473 5.6185006e-39
-0.28665051 -0.041618098 1.473 5.4344947e-39
-0.2840786 -0.034370001 1.473 5.0667772e-39
-0.28197432 -0.028057145 1.473 4.8824027e-39
-0.27860746 -0.024970859 1.473 4.9738669e-39
-0.27467945 -0.017114859 1.473 4.9749206e-39
-0.26794574 -0.012625715 1.473 5.2504187e-39
-0.26401776 -0.006453143 1.473 5.3415578e-39
-0.25952858 -0.0014028572 1.473 4.7912931e-39
-0.25592127 0.0062126536 1.4730002 5.0657024e-39
-0.25111145 0.014028572 1.473 4.9749234e-39
-0.24606116 0.015992573 1.473 4.9742018e-39
-0.2426943 0.021042859 1.473 4.9735109e-39
-0.23918717 0.027355716 1.473 4.6065165e-39
-0.23568001 0.035071433 1.473 4.7898091e-39
-0.2328743 0.042085715 1.473 5.1557274e-39
-0.22529888 0.047416575 1.473 5.0646149e-39
-0.22137086 0.054150291 1.473 5.1567966e-39
-0.21744287 0.057517145 1.473 5.1575014e-39
-0.21370193 0.065934293 1.473 5.1578742e-39
-0.21183144 0.07154572 1.473 5.157891e-39
-0.20762287 0.07645572 1.473 4.9738711e-39
-0.20154384 0.083703816 1.473 4.9752808e-39
-0.19569859 0.087678581 1.473 5.0660611e-39
-0.18798287 0.093991429 1.473 5.0671415e-39
-0.18096858 0.10661715 1.473 1.6652877e-39
-0.18096858 0.11222858 1.473 1.6593404e-38
-0.17816287 0.11222858 1.473 1.9087355e-38
-0.37569621 -0.1638362 1.483 2.8526471e-39
-0.38069907 -0.1556762 1.4860001 2.667544e-39
-0.37496239 -0.15414478 1.4814999 2.3009209e-39
-0.37468433 -0.14612335 1.4860001 2.3938228e-39
-0.36669937 -0.14292626 1.4817144 2.4860254e-39
-0.3635326 -0.13508454 1.48525 2.3942039e-39
-0.35801905 -0.1353143 1.48 2.7608116e-39
-0.36088574 -0.12878667 1.4860001 2.7611802e-39
-0.35474372 -0.1247289 1.4826666 3.0370398e-39
-0.35320085 -0.11530586 1.4842858 3.1295941e-39
-0.3459377 -0.1134305 1.4808571 3.1306801e-39
-0.34506324 -0.10507359 1.4854546 3.4047447e-39
-0.33634216 -0.10329834 1.4807498 3.4969403e-39
-0.3352623 -0.094777144 1.4853333 3.6816791e-39
-0.32616386 -0.092746668 1.48 3.4987466e-39
-0.33399624 -0.089160003 1.4860001 3.5905695e-39
-0.3259469 -0.085111171 1.4827273 4.1441034e-39
-0.32506859 -0.07490667 1.4840001 5.0671233e-39
-0.3185524 -0.074704766 1.48 5.2504523e-39
-0.32338193 -0.066516191 1.4860001 5.2511642e-39
-0.31573954 -0.064689539 1.4854546 5.5266721e-39
-0.30743018 -0.062615559 1.4830002 5.7103389e-39
-0.32125908 -0.058024764 1.4860001 5.0675002e-39
-0.31559813 -0.055194288 1.4860001 5.4344863e-39
-0.30567834 -0.054756384 1.4818 5.343727e-39
-0.31276762 -0.049533337 1.4860001 6.2613631e-39
-0.30517763 -0.046237517 1.4850769 5.5266861e-39
-0.29573113 -0.042783182 1.4809999 5.7092725e-39
-0.30144572 -0.038211431 1.4860001 5.3415746e-39
-0.29565331 -0.035363812 1.4853333 5.4330303e-39
-0.28895241 -0.035238098 1.48 5.2500852e-39
-0.29201081 -0.026417783 1.4860001 5.0664142e-39
-0.28606209 -0.025196191 1.4817144 4.9742396e-39
-0.28413635 -0.01554803 1.4842858 5.2493719e-39
-0.27584335 -0.013403335 1.4815 4.8834523e-39
-0.28163239 -0.0099066673 1.4860001 5.5252246e-39
-0.27243334 -0.005660953 1.4860001 5.3415676e-39
-0.26752767 -0.0047923811 1.48 5.3415746e-39
-0.27031049 0.0014152381 1.4860001 5.3408403e-39
-0.26449168 0.0058080428 1.4833333 5.2483e-39
-0.25794289 0.009866667 1.48 5.065359e-39
-0.26323432 0.014152382 1.4860001 4.9734997e-39
-0.25637582 0.01593769 1.4825715 4.8827404e-39
-0.24948573 0.018323811 1.48 4.9745703e-39
-0.25238413 0.025002543 1.4860001 4.7901748e-39
-0.24560139 0.025992654 1.4808571 4.7901945e-39
-0.25049716 0.032550476 1.4860001 4.6075787e-39
-0.24451049 0.035333339 1.4840001 4.6068696e-39
-0.23820955 0.038057145 1.48 4.8820019e-39
-0.24389273 0.042928889 1.4860001 4.8816544e-39
-0.23669311 0.046636432 1.4837501 4.7887469e-39
-0.22975239 0.049333338 1.48 4.8812957e-39
-0.23472735 0.054789938 1.4860002 4.7891071e-39
-0.22740319 0.054971438 1.48 4.9734913e-39
-0.23162732 0.061798733 1.4860001 4.8820159e-39
-0.22472289 0.065016195 1.4840001 4.9731312e-39
-0.21808954 0.06573981 1.4812001 5.1575056e-39
-0.22219239 0.072177149 1.4860001 4.8820216e-39
-0.21596535 0.07444153 1.4860001 4.9734941e-39
-0.21126631 0.084000006 1.4848001 5.0660499e-39
-0.20559876 0.087040648 1.4820001 5.0664002e-39
-0.21087049 0.097651437 1.4860001 5.1589476e-39
-0.20426604 0.094820961 1.4860001 5.2500824e-39
-0.19576059 0.094912581 1.483 5.066424e-39
-0.20237906 0.10048191 1.4860001 5.3418969e-39
-0.19491699 0.10438973 1.4852 4.9752934e-39
-0.186527 0.10524445 1.48 3.3175881e-39
-0.19176477 0.11392668 1.4860001 6.8102699e-39
-0.18618381 0.1142505 1.4809999 1.3643877e-38
-0.18822668 0.12029525 1.4860001 2.3415141e-38
-0.38553315 -0.16217691 1.4937501 2.6696978e-39
-0.39259526 -0.15561049 1.4990001 2.4845877e-39
-0.38680241 -0.15500715 1.4931668 2.5757043e-39
-0.38525105 -0.14634456 1.4951112 2.7608102e-39
-0.37726289 -0.14138477 1.4920001 2.7615375e-39
-0.38188809 -0.13633762 1.4990001 2.3938522e-39
-0.37390676 -0.13505937 1.4927779 2.3945556e-39
-0.3680267 -0.13214858 1.4920001 2.3031335e-39
-0.37375069 -0.12762915 1.4990001 2.3945514e-39
-0.36544314 -0.12465629 1.4920002 2.7611886e-39
-0.35950097 -0.12078096 1.4920001 3.587694e-39
-0.36575595 -0.1162158 1.4960001 3.037044e-39
-0.35950097 -0.11509715 1.4920001 3.4958599e-39
-0.36118764 -0.10992667 1.4990001 3.3125435e-39
-0.35471892 -0.10467678 1.4934002 3.221787e-39
-0.34813336 -0.10088763 1.4920001 3.7731573e-39
-0.35404956 -0.09850572 1.4990001 3.2225044e-39
-0.3456544 -0.095301606 1.4935557 3.5898408e-39
-0.34436834 -0.085553817 1.4972501 3.8657088e-39
-0.33619738 -0.08440458 1.4920002 4.050463e-39
-0.34120098 -0.077091433 1.4990001 4.5121754e-39
-0.33497274 -0.075546034 1.4966668 4.789477e-39
-0.33320633 -0.066527046 1.4990001 5.3430053e-39
-0.32681906 -0.062521912 1.4920001 4.9763836e-39
-0.33263525 -0.058532383 1.4990001 5.2518901e-39
-0.32594585 -0.055092745 1.4928751 5.0671205e-39
-0.32349849 -0.046540387 1.4990001 5.0664254e-39
-0.31616849 -0.045205619 1.4927002 5.1586211e-39
-0.30692571 -0.041207623 1.4920001 5.3415942e-39
-0.31459776 -0.035981551 1.4963751 5.0656897e-39
-0.30604085 -0.035187744 1.4928751 5.1571805e-39
-0.31264859 -0.029980002 1.4990001 4.9738528e-39
-0.30440179 -0.026143389 1.4974446 5.1564589e-39
-0.29697907 -0.024968168 1.4920001 5.1575196e-39
-0.30265525 -0.018559048 1.4990001 5.1578826e-39
-0.29464611 -0.016029881 1.4963751 4.8816572e-39
-0.28845334 -0.012788572 1.4920001 5.4334003e-39
-0.29266194 -0.0085657146 1.4990001 5.2497195e-39
-0.28648251 -0.0053041563 1.495182 5.2500712e-39
-0.27803305 -0.0052101593 1.4920002 4.9745927e-39
-0.28507039 0.0045971433 1.4974446 5.2490048e-39
-0.27543586 0.0055780956 1.4925388 5.2486545e-39
-0.26856002 0.0099466676 1.4920001 5.4327052e-39
-0.27538899 0.015695661 1.4982224 5.1568274e-39
-0.26685488 0.016767239 1.4920001 5.065338e-39
-0.27267525 0.021414287 1.4990001 5.2479412e-39
-0.26422152 0.025225442 1.4950004 5.0646079e-39
-0.25719243 0.026998099 1.4920001 4.7901664e-39
-0.26220608 0.03378699 1.4990001 4.8809285e-39
-0.25500739 0.035922382 1.4937501 4.6061325e-39
-0.25479883 0.043383267 1.4970001 4.6983267e-39
-0.24696654 0.047877621 1.4931668 4.9731298e-39
-0.24363813 0.055565719 1.4960001 4.5143292e-39
-0.23729907 0.058259051 1.4920001 4.9738542e-39
-0.2407043 0.062671907 1.4955001 4.3309988e-39
-0.2352124 0.066505298 1.4927779 4.6976387e-39
-0.23397772 0.074385725 1.4962001 4.6965569e-39
-0.22529221 0.075952195 1.4934002 4.789463e-39
-0.21740572 0.078152388 1.4920001 4.8812887e-39
-0.22394831 0.084677152 1.4977275 4.7894686e-39
-0.21618776 0.085866138 1.4920001 4.7898385e-39
-0.22128096 0.094222859 1.4990001 4.9738528e-39
-0.21528669 0.094708994 1.4970001 4.8830935e-39
-0.20793271 0.095203817 1.4920001 5.0667505e-39
-0.2133359 0.10215493 1.4966668 5.0667575e-39
-0.20604515 0.10598817 1.4937503 5.0667603e-39
-0.20205775 0.11485543 1.4962001 4.6040011e-39
-0.19637564 0.11566553 1.4920001 4.7851862e-39
-0.19548574 0.12355762 1.4955001 1.982421e-38
-0.39442861 -0.15060002 1.506 2.3931109e-39
-0.39299431 -0.14629716 1.506 2.4856625e-39
-0.38869146 -0.1419943 1.506 3.0363237e-39
-0.38367146 -0.13267145 1.506 2.1186848e-39
-0.38008574 -0.12765144 1.506 2.3938312e-39
-0.376261 -0.12287049 1.506 2.4863939e-39
-0.37291431 -0.11617715 1.506 2.5785882e-39
-0.36717719 -0.1118743 1.506 3.1292326e-39
-0.36402175 -0.10527658 1.506 3.037753e-39
-0.36144 -0.098965719 1.506 3.1299501e-39
-0.35484231 -0.093802296 1.506 3.1306647e-39
-0.35140002 -0.087491438 1.506 3.8657046e-39
-0.34853145 -0.08175429 1.506 4.0504574e-39
-0.34470671 -0.076017149 1.506 4.604727e-39
-0.33992574 -0.070280008 1.506 5.5252428e-39
-0.3370572 -0.06454286 1.506 5.5259602e-39
-0.33418858 -0.05450286 1.506 5.1593245e-39
-0.32730404 -0.043889146 1.506 5.4341458e-39
-0.32367051 -0.037769526 1.506 5.0667898e-39
-0.31888956 -0.031076193 1.506 4.882023e-39
-0.31451839 -0.025612248 1.506 4.9735025e-39
-0.30837145 -0.022948574 1.506 5.1568176e-39
-0.31124002 -0.018645715 1.506 5.157884e-39
-0.30478573 -0.015777145 1.506 5.1578868e-39
-0.29833144 -0.011474287 1.506 4.8823845e-39
-0.29574975 -0.0037291434 1.506 5.0667589e-39
-0.29498479 0.0023904764 1.506 4.7908979e-39
-0.28829145 0.0071714292 1.506 5.4330401e-39
-0.28327143 0.014342858 1.506 5.1568162e-39
-0.27649844 0.025020318 1.5060002 5.0642632e-39
-0.27108002 0.031554289 1.506 4.8802349e-39
-0.26629907 0.036813337 1.506 4.7898119e-39
-0.2624743 0.043028574 1.506 4.6979764e-39
-0.25817144 0.04733143 1.506 4.9738332e-39
-0.25315145 0.05235143 1.506 4.6061367e-39
-0.24813144 0.058805719 1.506 4.6987065e-39
-0.24454573 0.065260001 1.506 4.5146684e-39
-0.24335049 0.071236208 1.506 4.7887511e-39
-0.23665716 0.077451438 1.506 4.6961912e-39
-0.23331051 0.08462286 1.506 4.8809636e-39
-0.22805144 0.087491438 1.506 4.8812957e-39
-0.23092002 0.091794297 1.506 4.973134e-39
-0.22600248 0.09527757 1.506 4.9731424e-39
-0.21944574 0.098965719 1.506 4.882732e-39
-0.2223143 0.10183429 1.506 4.9742102e-39
-0.21657717 0.10470288 1.506 4.9749262e-39
-0.21084002 0.11474286 1.506 5.3440717e-39
-0.20725431 0.11689429 1.506 4.4217609e-39
-0.20366858 0.12478286 1.506 1.2170553e-38
-0.2022343 0.13052002 1.506 2.3050342e-38
-0.19936572 0.13052002 1.506 2.3048913e-38
-0.40362003 -0.16202667 1.5190001 2.3020265e-39
-0.39744002 -0.16272001 1.5120001 2.3020083e-39
-0.40477738 -0.15537201 1.5190001 2.1183331e-39
-0.39888003 -0.15552001 1.5120001 2.2101658e-39
-0.40145004 -0.14683667 1.5190001 1.9346551e-39
