# .PCD v0.7 - Point Cloud Data file format
VERSION 0.7
FIELDS x y z rgb
SIZE 4 4 4 4
TYPE F F F F
COUNT 1 1 1 1
WIDTH 352
HEIGHT 1
VIEWPOINT 0 0 0 1 0 0 0
POINTS 352
DATA ascii
1.0945629 -0.15031715 2.223 9.4006934e-39
1.0971953 -0.15126382 2.237 9.3084922e-39
1.1014563 -0.15552478 2.237 9.3081377e-39
1.0801516 -0.14700286 2.237 1.1892464e-38
1.095775 -0.14558256 2.237 9.2170322e-39
1.1731849 -0.17801525 2.2520001 9.12268e-39
1.1131315 -0.16085716 2.2520001 9.2159518e-39
1.0745258 -0.15442288 2.2520001 1.4655473e-38
1.0852497 -0.15442288 2.2520001 1.3176742e-38
1.0938287 -0.15442288 2.2520001 9.5821756e-39
1.1016928 -0.15513781 2.2520003 9.0322472e-39
1.1131315 -0.15656763 2.2520001 9.4003431e-39
1.0659467 -0.14369905 2.2520001 1.474515e-38
1.0745258 -0.14584383 2.2520001 1.493027e-38
1.0845348 -0.14512891 2.2520003 1.2627159e-38
1.0938287 -0.14584382 2.2520001 9.0329843e-39
1.1002629 -0.14369905 2.2520001 8.7585708e-39
1.0659467 -0.13940953 2.2520001 1.4653281e-38
1.0736679 -0.13769372 2.2520001 1.4838425e-38
1.0852497 -0.13940953 2.2520001 1.1418933e-38
1.1567391 -0.18343811 2.266 8.8482427e-39
1.1653714 -0.18343811 2.266 8.7553282e-39
1.1740038 -0.18343811 2.266 8.7546318e-39
1.1804782 -0.18343811 2.266 9.3052748e-39
1.1416324 -0.17048953 2.266 9.2166343e-39
1.1567391 -0.17480573 2.266 8.8471427e-39
1.1653714 -0.17480575 2.266 8.8478784e-39
1.174004 -0.17480573 2.266 8.939016e-39
1.0855219 -0.16185716 2.2660003 1.4471438e-38
1.0963125 -0.16185716 2.266 1.2709996e-38
1.1049448 -0.16185716 2.266 8.664185e-39
1.1135771 -0.16185716 2.266 9.1241023e-39
1.122929 -0.16473462 2.2660003 9.2152358e-39
1.1416324 -0.16617334 2.266 9.3081138e-39
1.1567391 -0.16401525 2.266 9.215212e-39
1.1653714 -0.16401525 2.266 9.399599e-39
1.1588972 -0.15754096 2.266 9.4006738e-39
1.1643963 -0.19334191 2.2810001 8.9375517e-39
1.1752582 -0.19334191 2.2810001 8.8467896e-39
1.185396 -0.19479017 2.2810001 9.1219654e-39
1.1318105 -0.18030763 2.2810001 8.7556687e-39
1.1470172 -0.18030763 2.2810001 8.847507e-39
1.1557068 -0.18030763 2.2810001 8.6624011e-39
1.1643963 -0.18899715 2.2810001 8.8468008e-39
1.1752582 -0.18899715 2.2810001 8.8464406e-39
1.18612 -0.18899715 2.2810001 9.2127261e-39
1.1926372 -0.18465239 2.2810001 9.2141386e-39
1.105742 -0.1716181 2.2810001 1.1610138e-38
1.1144316 -0.1716181 2.2810001 8.8471399e-39
1.1274658 -0.17379048 2.2810001 8.8482553e-39
1.1318105 -0.17379048 2.2810001 9.0315592e-39
1.1470172 -0.17596287 2.2810001 9.0322472e-39
1.1557068 -0.17379048 2.2810001 8.9393117e-39
1.0861905 -0.16510096 2.2810001 1.4654388e-38
1.0948801 -0.16727334 2.2810001 1.4378533e-38
1.1035695 -0.16727334 2.2810001 1.2900857e-38
1.1144316 -0.16727334 2.2810001 8.8464392e-39
1.123121 -0.16727334 2.2810001 9.1237534e-39
1.1448449 -0.16727334 2.2810001 9.3066915e-39
1.156431 -0.1658251 2.2810001 9.3084754e-39
1.179603 -0.16510096 2.2810001 1.0041382e-38
1.1839477 -0.16727334 2.2810001 9.3989292e-39
1.1878772 -0.20344858 2.2970002 8.9390062e-39
1.1944401 -0.20344858 2.2970002 8.9397223e-39
1.1441249 -0.19032288 2.2970002 9.2148336e-39
1.1550629 -0.19032288 2.2970002 8.7549569e-39
1.1638134 -0.19032288 2.2970002 8.4798259e-39
1.1747515 -0.19907336 2.2970004 8.8467924e-39
1.1856896 -0.19907334 2.2970002 8.9393509e-39
1.1966277 -0.19907334 2.2970002 9.1230275e-39
1.201003 -0.19032288 2.2970002 9.3049035e-39
1.0938096 -0.18376002 2.2970002 1.4194505e-38
1.1244363 -0.18157239 2.2970002 9.3055733e-39
1.1353743 -0.18376 2.2970002 8.664192e-39
1.1463125 -0.18376002 2.2970002 9.0304536e-39
1.1550629 -0.18594763 2.2970002 8.7553198e-39
1.1638134 -0.18594763 2.2970002 8.5716796e-39
1.0959972 -0.17500953 2.2970002 1.4285623e-38
1.1047477 -0.17500953 2.2970002 1.4469298e-38
1.1156858 -0.17719716 2.2970002 1.0504516e-38
1.1244363 -0.17719716 2.2970002 9.122261e-39
1.1309991 -0.17500953 2.2970002 9.0312159e-39
1.1463125 -0.17500952 2.2970002 9.1237436e-39
1.1528753 -0.17282191 2.2970002 9.215928e-39
1.091622 -0.16844667 2.2970002 1.4561837e-38
1.1463125 -0.16844667 2.2970002 9.3070643e-39
1.2015061 -0.21505272 2.312 8.846421e-39
1.1758173 -0.20257525 2.312 9.0297207e-39
1.1846248 -0.20477715 2.312 8.9389992e-39
1.1912305 -0.20477715 2.312 9.031185e-39
1.2022401 -0.20918097 2.312 8.7549653e-39
1.0987506 -0.19156572 2.312 1.4287778e-38
1.1031543 -0.19376764 2.312 1.4194499e-38
1.1251734 -0.19156572 2.312 1.1517568e-38
1.1361829 -0.19156572 2.312 8.4798021e-39
1.1449906 -0.19376762 2.312 8.8474958e-39
1.1545322 -0.19450161 2.312 8.9393313e-39
1.1648077 -0.19596955 2.312 8.8467882e-39
1.1736153 -0.19596954 2.312 8.9382677e-39
1.1075581 -0.18496001 2.312 1.4193434e-38
1.1141639 -0.18496001 2.312 1.4469657e-38
1.1242927 -0.1854004 2.312 1.0875441e-38
1.1361829 -0.18716192 2.312 8.755303e-39
1.2078239 -0.22383526 2.3270001 8.5715872e-39
1.2033916 -0.2149705 2.3270001 8.7553086e-39
1.1324733 -0.20167334 2.3270001 1.2713591e-38
1.1457705 -0.20167334 2.3270001 8.295785e-39
1.1557434 -0.20278144 2.3270001 8.7556547e-39
1.1657163 -0.20167334 2.3270001 8.7556589e-39
1.1745811 -0.20388953 2.3270001 9.1215576e-39
1.1812296 -0.20610572 2.3270001 9.0296884e-39
1.11696 -0.19502477 2.3270001 1.4193066e-38
1.1258248 -0.19502477 2.3270001 1.3731363e-38
1.1354283 -0.19576351 2.3270001 1.0685636e-38
1.1435544 -0.19724096 2.3270001 8.295778e-39
1.1960459 -0.22091144 2.3430002 7.9273668e-39
1.2049716 -0.22091144 2.3430002 8.479086e-39
1.2116657 -0.22760573 2.3430002 8.2042816e-39
1.1960459 -0.21421716 2.3430002 8.570567e-39
1.2049716 -0.21421716 2.3430002 8.9382649e-39
1.12464 -0.20529145 2.3430002 1.4285253e-38
1.1335658 -0.20529145 2.3430002 1.3825352e-38
1.1456155 -0.20573774 2.3430002 9.8580534e-39
1.15588 -0.20752287 2.3430002 8.4783686e-39
1.1625744 -0.20752287 2.3430002 8.7556463e-39
1.1737316 -0.20752287 2.3430002 8.6634591e-39
1.2042134 -0.24039336 2.3590002 7.7436678e-39
1.2109534 -0.24039336 2.3590002 8.2954052e-39
1.1839935 -0.23140669 2.3590002 8.3868974e-39
1.2042134 -0.23365337 2.3590002 8.1106665e-39
1.2132001 -0.23365335 2.3590002 8.2957738e-39
1.13906 -0.22242002 2.3590002 1.3458375e-38
1.146549 -0.22391781 2.3590002 1.4009016e-38
1.1547868 -0.22466668 2.3590002 1.0046067e-38
1.1637734 -0.22466668 2.3590002 8.2929081e-39
1.1759055 -0.22421734 2.3590002 7.9277312e-39
1.1862401 -0.22466668 2.3590002 8.2950661e-39
1.1952267 -0.22242002 2.3590002 8.2939927e-39
1.2042134 -0.22691335 2.3590002 8.1114021e-39
1.2132001 -0.22691335 2.3590002 8.3876107e-39
1.1368134 -0.21568002 2.3590002 1.3734956e-38
1.1458 -0.21568 2.3590002 1.3916814e-38
1.1547868 -0.21568 2.3590002 9.2091149e-39
1.1637734 -0.21568 2.3590002 8.3840192e-39
1.1750069 -0.21568003 2.3590002 8.3868736e-39
1.1862401 -0.21568 2.3590002 8.5709215e-39
1.1952267 -0.21568002 2.3590002 8.661671e-39
1.2151544 -0.25117716 2.3760002 8.1102643e-39
1.1563201 -0.24212573 2.3760002 1.3086362e-38
1.1653714 -0.24212573 2.3760002 1.1514709e-38
1.1766858 -0.24212573 2.3760002 7.7415098e-39
1.1864915 -0.24363431 2.3760002 8.2014244e-39
1.1947887 -0.2443886 2.3760002 7.8333663e-39
1.20384 -0.24438858 2.3760002 8.017403e-39
1.2151544 -0.24665146 2.3760002 8.0198861e-39
1.2264687 -0.24212573 2.3760002 8.3879764e-39
1.1472687 -0.23533717 2.3760002 1.3455503e-38
1.1540573 -0.23533717 2.3760002 1.3915391e-38
1.1653715 -0.23533717 2.3760004 1.07811e-38
1.1766858 -0.23533717 2.3760002 7.8333439e-39
1.1857373 -0.23533717 2.3760002 8.2939773e-39
1.1955431 -0.23609146 2.3760002 8.2936186e-39
1.20384 -0.23533717 2.3760002 8.2936242e-39
1.1472687 -0.22854859 2.3760002 1.3456582e-38
1.1517943 -0.22854859 2.3760002 1.391719e-38
1.1789486 -0.22854859 2.3760002 8.0192416e-39
1.20384 -0.22854859 2.3760002 8.3865569e-39
1.1549944 -0.25742477 2.3920002 1.3636637e-38
1.1656255 -0.25438732 2.3920002 1.2995229e-38
1.1754972 -0.25286859 2.3920002 1.1605449e-38
1.1846097 -0.25286859 2.3920002 7.8333579e-39
1.193722 -0.25286859 2.3920002 7.8344299e-39
1.2051125 -0.25514671 2.3920002 7.6500386e-39
1.2157435 -0.25590605 2.3920002 8.0166548e-39
1.2256153 -0.25742477 2.3920002 7.3687364e-39
1.2339685 -0.25438732 2.3920002 8.2028439e-39
1.241562 -0.25286859 2.3920002 8.7553114e-39
1.1580318 -0.24527495 2.3920002 1.3270036e-38
1.1663848 -0.2483124 2.3920002 1.2901969e-38
1.1754972 -0.2483124 2.3920002 1.1240262e-38
1.1846097 -0.2483124 2.3920002 7.8337264e-39
1.1914439 -0.2483124 2.3920002 8.2943417e-39
1.2347277 -0.2483124 2.3920002 8.479449e-39
1.241562 -0.2483124 2.3920002 8.6638388e-39
1.227443 -0.27302003 2.4090002 7.6507519e-39
1.2343258 -0.27302003 2.4090002 7.7429433e-39
1.243503 -0.27302003 2.4090002 7.7418783e-39
1.2503858 -0.27302003 2.4090002 7.925192e-39
1.2259135 -0.26537243 2.4090002 7.8322621e-39
1.2343258 -0.26613718 2.4090002 6.9128323e-39
1.243503 -0.26613718 2.4090002 7.6507925e-39
1.2503858 -0.26613718 2.4090002 8.1103133e-39
1.1677915 -0.25696003 2.4090002 1.3269999e-38
1.1769687 -0.25925431 2.4090002 1.3179627e-38
1.1838515 -0.25925431 2.4090002 1.1794138e-38
1.195323 -0.25925431 2.4090002 7.6475219e-39
1.2045001 -0.25925431 2.4090002 7.557829e-39
1.2457973 -0.25925431 2.4090002 8.2953982e-39
1.2549744 -0.25810716 2.4090002 8.6623969e-39
1.2684516 -0.31191429 2.4260001 8.2885613e-39
1.2730725 -0.31191429 2.4260001 8.2889312e-39
1.2669113 -0.29497084 2.4260001 7.9201389e-39
1.2361048 -0.2841886 2.4260001 7.9237599e-39
1.2453468 -0.28649908 2.4260004 7.7390001e-39
1.2568991 -0.28649908 2.4260001 8.1056092e-39
1.2661411 -0.28649908 2.4260001 7.8311915e-39
1.2730725 -0.2841886 2.4260001 7.7400651e-39
1.1760324 -0.27494669 2.4260001 1.2997045e-38
1.1852744 -0.27032572 2.4260001 1.3364391e-38
1.1968267 -0.27032572 2.4260001 9.1072321e-39
1.2060686 -0.27032572 2.4260001 7.6431667e-39
1.2153106 -0.27032572 2.4260001 6.5436603e-39
1.2253226 -0.27186605 2.4260001 7.4638579e-39
1.2330244 -0.27494669 2.4260001 7.6496799e-39
1.2453468 -0.27956766 2.4260001 7.8333201e-39
1.2568991 -0.27956763 2.4260001 8.0162806e-39
1.2661412 -0.27494669 2.4260004 8.1095903e-39
1.173722 -0.26570478 2.4260001 1.3731e-38
1.1852744 -0.26570481 2.4260001 1.3362578e-38
1.1968267 -0.26570478 2.4260001 8.6570117e-39
1.2060686 -0.26570478 2.4260001 7.6457016e-39
1.2153106 -0.26570478 2.4260001 7.4638271e-39
1.2245524 -0.26570478 2.4260001 8.382566e-39
1.2661411 -0.26570478 2.4260001 8.38618e-39
1.2564001 -0.30014002 2.4430001 8.1038127e-39
1.2652415 -0.30386269 2.4430001 9.021418e-39
1.2750134 -0.30479336 2.4430001 8.9295937e-39
1.1889267 -0.29083335 2.4430001 1.3088174e-38
1.2463179 -0.2939356 2.4430003 7.6471744e-39
1.2564001 -0.29548669 2.4430001 7.2783779e-39
1.2657068 -0.29548669 2.4430001 8.0112443e-39
1.1873755 -0.28462893 2.4430003 1.2904843e-38
1.1951312 -0.28307781 2.4430003 1.3640256e-38
1.2052133 -0.28152668 2.4430001 1.0414855e-38
1.21452 -0.28152668 2.4430001 7.9215893e-39
1.2215 -0.28152668 2.4430001 6.911773e-39
1.2331333 -0.28152668 2.4430001 7.1898326e-39
1.2401134 -0.28385335 2.4430001 7.7411637e-39
1.1866 -0.27687335 2.4430001 1.2813018e-38
1.1959066 -0.27687335 2.4430001 1.3638816e-38
1.2052133 -0.27687335 2.4430001 9.5840099e-39
1.21452 -0.27687335 2.4430001 7.7353847e-39
1.2238266 -0.27687335 2.4430001 5.716457e-39
1.2308067 -0.27687335 2.4430001 6.1774701e-39
1.2862287 -0.32331431 2.46 7.7407965e-39
1.2909144 -0.32097146 2.46 7.9244675e-39
1.265924 -0.31316194 2.46 8.3800465e-39
1.2752955 -0.31472385 2.46 8.3796611e-39
1.2815429 -0.31394288 2.46 8.3800185e-39
1.2909144 -0.31160003 2.46 9.3895139e-39
1.1972001 -0.3022286 2.46 1.3177853e-38
1.2557715 -0.30457145 2.46 9.0225362e-39
1.2651429 -0.3069143 2.46 8.9306937e-39
1.2909144 -0.3069143 2.46 1.0399717e-38
1.1972001 -0.29754287 2.46 1.3087095e-38
1.2042286 -0.29285717 2.46 1.3640264e-38
1.2136002 -0.29285717 2.46 1.1792386e-38
1.2229714 -0.29285717 2.46 8.2864173e-39
1.2346858 -0.29285717 2.46 8.0155856e-39
1.2487429 -0.29520002 2.46 7.8308286e-39
1.2065715 -0.28817144 2.46 1.4005803e-38
1.2136002 -0.28817144 2.46 1.123994e-38
1.2229714 -0.28817144 2.46 8.011271e-39
1.2346858 -0.28700003 2.46 7.2812813e-39
1.2440572 -0.28817144 2.46 7.6489807e-39
1.2626001 -0.36580002 2.4780002 7.3901118e-40
1.2940668 -0.34377337 2.4780002 6.9106575e-39
1.3003601 -0.34220001 2.4780002 6.8188444e-39
1.2838401 -0.33512002 2.4780002 6.3589145e-39
1.2932801 -0.33512002 2.4780002 6.7262845e-39
1.3003601 -0.33512002 2.4780002 6.6315959e-39
1.2744001 -0.32332003 2.4780002 7.7379407e-39
1.2838401 -0.32568002 2.4780002 7.5542403e-39
1.2909201 -0.32568002 2.4780002 7.7400665e-39
1.2130401 -0.31624001 2.4780002 1.3087445e-38
1.2649601 -0.31624001 2.4780002 8.3793402e-39
1.2720401 -0.31860003 2.4780002 8.0130716e-39
1.20596 -0.30916002 2.4780002 1.3178566e-38
1.2130401 -0.30680001 2.4780002 1.3270403e-38
1.2248402 -0.30680001 2.4780002 1.18835e-38
1.2563069 -0.30601335 2.4780002 9.0221579e-39
1.2130401 -0.29972002 2.4780002 1.3546991e-38
1.2248402 -0.29972002 2.4780002 1.1420724e-38
1.2374268 -0.29814669 2.4780002 7.5520837e-39
1.2468667 -0.29814669 2.4780002 8.014145e-39
1.2531601 -0.29736 2.4780002 7.7389987e-39
1.2646401 -0.36845717 2.4960001 1.3797003e-39
1.2749412 -0.36528766 2.4960001 2.7615599e-39
1.28128 -0.36608005 2.4960001 2.0250725e-39
1.2741487 -0.35657144 2.4960001 7.0918062e-39
1.2836572 -0.35657144 2.4960001 7.0910845e-39
1.2931658 -0.35657147 2.4960001 7.3672958e-39
1.3050516 -0.35657144 2.4960003 7.8268307e-39
1.2741487 -0.34944001 2.4960001 7.0918132e-39
1.2836572 -0.34706286 2.4960001 6.6344322e-39
1.2931658 -0.34706289 2.4960001 6.54294e-39
1.3050516 -0.34944001 2.4960001 7.0939586e-39
1.2741487 -0.33517718 2.4960003 7.0021581e-39
1.2836573 -0.33517718 2.4960003 6.9099625e-39
1.2273982 -0.32408386 2.4960001 1.3181076e-38
1.2361144 -0.3209143 2.4960001 1.2072552e-38
1.2432458 -0.3209143 2.4960001 8.1077728e-39
1.2646401 -0.3209143 2.4960001 7.7372134e-39
1.2741487 -0.3256686 2.4960001 7.5528138e-39
1.2289829 -0.31616002 2.4960001 1.317999e-38
1.235322 -0.31457525 2.4960001 1.234554e-38
1.2456229 -0.3137829 2.4960001 8.9274413e-39
1.2551315 -0.3137829 2.4960001 9.5728499e-39
1.2638477 -0.31457525 2.4960001 9.0221985e-39
1.2337372 -0.30665144 2.4960001 1.2532806e-38
1.2456229 -0.30665144 2.4960001 8.4664688e-39
1.2551315 -0.30665144 2.4960001 9.2969525e-39
1.2737601 -0.36632574 2.5140002 3.9557717e-39
1.2761544 -0.35674858 2.5140002 6.8170101e-39
1.2538078 -0.34397909 2.5140004 1.0682418e-38
1.2641829 -0.34238288 2.5140002 6.174561e-39
1.2761544 -0.34238288 2.5140002 6.9106883e-39
1.2833372 -0.34717146 2.5140002 7.0025014e-39
1.2282686 -0.33520001 2.5140002 1.3087091e-38
1.2354515 -0.33520001 2.5140002 1.327112e-38
1.2450287 -0.33520001 2.5140002 1.2717203e-38
1.2546058 -0.33520001 2.5140002 8.9328447e-39
1.2641829 -0.33520001 2.5140002 5.8990419e-39
1.2737601 -0.33520001 2.5140002 6.0834626e-39
1.2450287 -0.32801718 2.5140002 1.2350221e-38
1.2554039 -0.32642099 2.5140004 8.1048679e-39
1.2641829 -0.32562289 2.5140002 6.9106589e-39
1.2737601 -0.32801718 2.5140002 6.8184885e-39
1.2563543 -0.37377146 2.5320001 1.3088889e-38
1.2732344 -0.37377146 2.5320001 4.7804863e-39
1.2467086 -0.36894861 2.5320001 1.2995975e-38
1.2531393 -0.36734098 2.5320001 1.2996331e-38
1.2611772 -0.36653715 2.5320001 1.3454358e-38
1.2732344 -0.36653715 2.5320001 5.7960577e-39
1.2828801 -0.36412573 2.5320001 6.6315539e-39
1.2467086 -0.35448003 2.5320001 1.2994531e-38
1.253943 -0.35448003 2.5320001 1.290449e-38
1.2635887 -0.35689145 2.5320001 1.0867159e-38
1.2732344 -0.35689145 2.5320001 5.435917e-39
1.2820764 -0.35608765 2.5320001 6.6329958e-39
1.2467086 -0.34724575 2.5320001 1.3362227e-38
1.253943 -0.34724575 2.5320001 1.2995236e-38
1.266 -0.34965718 2.5320001 8.7463165e-39
1.2732344 -0.34965718 2.5320001 5.7143102e-39
1.2820764 -0.34804958 2.5320001 6.8177612e-39
1.2512048 -0.37171715 2.5510001 1.3087112e-38
1.2738805 -0.37495655 2.5510001 1.0873961e-38
1.2560639 -0.36442858 2.5510001 1.2904137e-38
1.2641623 -0.36361873 2.5510001 1.3088168e-38
1.2755001 -0.36685812 2.5510001 9.7683157e-39
1.2512048 -0.35471052 2.5510001 1.3086721e-38
1.2512048 -0.34742191 2.5510001 1.3454067e-38
