# .PCD v0.7 - Point Cloud Data file format
VERSION 0.7
FIELDS x y z rgb
SIZE 4 4 4 4
TYPE F F F F
COUNT 1 1 1 1
WIDTH 1046
HEIGHT 1
VIEWPOINT 0 0 0 1 0 0 0
POINTS 1046
DATA ascii
-0.58509326 0.52892321 1.3761431 1.1428997e-38
-0.5755856 0.5283848 1.3766924 1.2534271e-38
-0.56548649 0.52876467 1.3770001 1.244171e-38
-0.55463177 0.52799082 1.3756669 1.1889984e-38
-0.54475224 0.52727598 1.3760836 1.2626466e-38
-0.53532368 0.52640253 1.377 1.28112e-38
-0.52568954 0.52699816 1.3765001 1.2903766e-38
-0.51490366 0.52616382 1.3769412 1.34562e-38
-0.50513798 0.52535021 1.3772352 1.3825717e-38
-0.49483198 0.52564234 1.3768126 1.4379968e-38
-0.48507977 0.52470642 1.3763531 1.4655853e-38
-0.47487831 0.52373058 1.3757859 1.4379975e-38
-0.46737251 0.52431917 1.3746252 1.5026416e-38
-0.66270804 0.53636539 1.3789999 1.1057697e-38
-0.65340507 0.53589582 1.3785833 1.1334639e-38
-0.64491647 0.53535074 1.3777499 1.1613387e-38
-0.63628614 0.53649759 1.3786666 1.1705573e-38
-0.62509274 0.53655875 1.378091 1.1982531e-38
-0.61473721 0.53535068 1.3777499 1.1890691e-38
-0.60466874 0.53509218 1.3763077 1.1798479e-38
-0.59409148 0.53520572 1.3740003 8.3901456e-39
-0.58558577 0.53324288 1.3740001 9.9581902e-39
-0.57603317 0.53311205 1.3740001 1.2074724e-38
-0.56474215 0.5337103 1.3740001 1.2440991e-38
-0.55614293 0.5325886 1.3740001 1.1981077e-38
-0.53520578 0.5325886 1.3740001 1.3551662e-38
-0.52997148 0.5325886 1.3740001 1.4106624e-38
-0.50641716 0.5325886 1.3740001 1.4471822e-38
-0.66229516 0.54408866 1.3747145 1.1519373e-38
-0.65443486 0.54448873 1.3743128 1.1704498e-38
-0.64512575 0.54305726 1.3740002 1.1979653e-38
-0.63560885 0.54281932 1.3740002 1.1795979e-38
-0.62602061 0.54253381 1.3740002 1.216441e-38
-0.61502862 0.54174864 1.3740001 1.1797048e-38
-0.60456002 0.5430572 1.3740003 1.1705936e-38
-0.59714478 0.54131246 1.3740001 1.1336795e-38
-0.66334432 0.55059767 1.3765001 1.1703789e-38
-0.65559435 0.55090868 1.3740001 1.1243552e-38
-0.51258194 0.51733059 1.3850001 1.3733518e-38
-0.50519532 0.51618737 1.3850001 1.4193417e-38
-0.49652728 0.51725519 1.3850001 1.3734259e-38
-0.48409054 0.51363719 1.3850001 1.4009766e-38
-0.60280478 0.52893811 1.3850001 5.4441987e-39
-0.59489059 0.52761906 1.3850001 7.7498223e-39
-0.58653659 0.52717936 1.3850001 1.1704149e-38
-0.5743134 0.52577239 1.3850001 1.2259103e-38
-0.56481624 0.52682763 1.3850001 1.2075091e-38
-0.55400002 0.52630001 1.3850001 1.2443156e-38
-0.54476678 0.52366197 1.3850001 1.2902334e-38
-0.53553337 0.52300239 1.3850001 1.3179977e-38
-0.52498102 0.52366191 1.3850001 1.3824273e-38
-0.51640719 0.52168339 1.3850001 1.3549497e-38
-0.49200478 0.52102387 1.3850001 1.4102671e-38
-0.6617223 0.53421438 1.3850001 1.1056969e-38
-0.65556669 0.53289527 1.3850001 1.0689252e-38
-0.64501441 0.53157628 1.3850001 1.1152039e-38
-0.63578099 0.53289527 1.3850001 1.1060213e-38
-0.62579393 0.53270686 1.3850001 1.1612668e-38
-0.61599529 0.53157628 1.3850001 1.1521901e-38
-0.51319623 0.50920767 1.396 1.3364366e-38
-0.50566232 0.50920767 1.3960001 1.3181065e-38
-0.65545529 0.51984382 1.396 1.0227572e-38
-0.6022743 0.51984382 1.396 1.0598878e-38
-0.59589261 0.51931202 1.396 1.0875833e-38
-0.58454734 0.5189575 1.3960001 1.0875476e-38
-0.57249302 0.51878017 1.396 1.1427548e-38
-0.56504768 0.51851434 1.3960001 1.1336093e-38
-0.55574095 0.51851428 1.396 1.1611589e-38
-0.54510486 0.51851428 1.396 1.2350225e-38
-0.5339368 0.51771659 1.396 1.2718643e-38
-0.52497482 0.51566911 1.3955001 1.2995604e-38
-0.51593381 0.51375818 1.3932728 1.3272177e-38
-0.50564247 0.51287365 1.392182 1.3364745e-38
-0.49488115 0.51401532 1.3925716 1.3458376e-38
-0.48672065 0.51319689 1.3900001 1.4101238e-38
-0.67140955 0.527821 1.396 9.9527938e-39
-0.6643188 0.527821 1.3960001 1.0320488e-38
-0.65368259 0.52575284 1.396 1.0319778e-38
-0.64481908 0.52516198 1.396 1.0319778e-38
-0.63594162 0.52611148 1.395 1.0689986e-38
-0.62581962 0.52711546 1.3951429 1.0967286e-38
-0.61291307 0.52599758 1.3954 6.6366392e-39
-0.60495168 0.52554256 1.3938183 7.1941388e-39
-0.59532148 0.52372146 1.392182 1.0877621e-38
-0.58507943 0.52365339 1.3920001 1.1429719e-38
-0.57423675 0.52362084 1.3925002 1.1705574e-38
-0.5651207 0.52440578 1.3940002 1.1796353e-38
-0.55576247 0.52392662 1.3927275 1.2166555e-38
-0.54517937 0.52209097 1.3908573 1.2535355e-38
-0.53463 0.52139193 1.3900002 1.3087784e-38
-0.52479601 0.52139193 1.3900002 1.3548055e-38
-0.6732409 0.53551513 1.3942858 1.0597446e-38
-0.66498482 0.53214675 1.3948001 1.0229367e-38
-0.65342003 0.53123665 1.3945 1.0598872e-38
-0.64424008 0.53062707 1.3936001 1.0783977e-38
-0.63450372 0.5311209 1.3917145 1.0874742e-38
-0.6241951 0.5312826 1.3937501 1.1337145e-38
-0.61451399 0.53070062 1.3924 1.1060555e-38
-0.60498101 0.53084767 1.3900001 4.0663075e-39
-0.67672765 0.54111624 1.396 1.0965502e-38
-0.51054001 0.49714002 1.4070001 1.2351684e-38
-0.53198004 0.50786 1.4070001 1.2166553e-38
-0.52414334 0.50740647 1.4057502 1.2259459e-38
-0.51484698 0.50619954 1.4046925 1.2351293e-38
-0.50582063 0.50654984 1.4047275 1.2812653e-38
-0.49982002 0.50786 1.4070001 1.3182148e-38
-0.67402005 0.51858002 1.4070001 7.0057973e-39
-0.66375494 0.51721656 1.4051249 7.6522121e-39
-0.65465403 0.51704282 1.4028335 8.2043138e-39
-0.64530402 0.51747149 1.4040002 7.0987076e-39
-0.63592982 0.51878691 1.40575 6.4515319e-39
-0.62317765 0.51827127 1.4061668 6.5505687e-39
-0.61395848 0.51627195 1.4035387 9.494331e-39
-0.60511434 0.51544881 1.4035387 1.0046054e-38
-0.59536254 0.51457167 1.4033891 1.0507398e-38
-0.5848527 0.51468891 1.4032501 1.078398e-38
-0.57415247 0.51473439 1.4020003 1.0966593e-38
-0.56463933 0.51318508 1.4032502 1.0690011e-38
-0.55524743 0.5141418 1.4027694 1.1243171e-38
-0.54420847 0.51414728 1.4028335 1.1705218e-38
-0.53497767 0.51237661 1.4033638 1.2074354e-38
-0.52588648 0.51118219 1.4032501 1.2534982e-38
-0.51940763 0.51139623 1.4020001 1.2811197e-38
-0.5030899 0.51111078 1.4036667 1.2994882e-38
-0.49648505 0.51118213 1.40325 1.3363665e-38
-0.69010007 0.52260005 1.4070001 6.7284719e-39
-0.6846258 0.52462214 1.4042727 8.9404229e-39
-0.6753456 0.52422559 1.4041876 9.1244597e-39
-0.66492414 0.5246805 1.4024169 9.7691102e-39
-0.65293145 0.52274579 1.4020001 1.0043539e-38
-0.64492011 0.52207816 1.4020002 1.0044968e-38
-0.63546932 0.52284753 1.4047275 8.8471665e-39
-0.62492621 0.52400649 1.4027694 6.5465665e-39
-0.61501068 0.52261227 1.4020001 5.9052091e-39
-0.6075334 0.52207816 1.4020001 9.6812278e-39
-0.58082861 0.52207816 1.4020001 1.10595e-38
-0.6847102 0.53329414 1.4020003 9.9538756e-39
-0.67830104 0.53276008 1.4020002 1.0044996e-38
-0.66895431 0.53008956 1.4020001 1.08715e-38
-0.68230671 0.54210675 1.4020001 1.0782552e-38
-0.53201246 0.49777624 1.419 1.1521536e-38
-0.52335781 0.49663973 1.4183333 1.1429362e-38
-0.51675427 0.49791431 1.4130001 1.1522646e-38
-0.67301148 0.50948858 1.419 8.8457064e-39
-0.63111722 0.50678575 1.419 9.6744091e-39
-0.62436008 0.50813717 1.4189999 9.4925289e-39
-0.61490005 0.5088129 1.419 9.6772747e-39
-0.6048609 0.50833023 1.419 9.3999788e-39
-0.59479785 0.50744736 1.4183333 1.0045347e-38
-0.5851686 0.50813717 1.419 1.0505252e-38
-0.57570857 0.50678581 1.4189999 1.041341e-38
-0.56556451 0.50713122 1.417909 1.0413412e-38
-0.5536353 0.50768673 1.4189999 1.0506332e-38
-0.54438001 0.50580293 1.4189999 1.0691442e-38
-0.53493559 0.50428045 1.4168572 1.1613017e-38
-0.52572006 0.5038783 1.4153999 1.2075074e-38
-0.51379377 0.50248975 1.4130001 1.2350605e-38
-0.50733429 0.5046429 1.4130001 1.2814447e-38
-0.70373309 0.51470697 1.4176667 8.109921e-39
-0.69487649 0.51711148 1.4167501 7.3731042e-39
-0.68536395 0.51601428 1.4173635 5.994511e-39
-0.67563272 0.5151481 1.4160001 6.3611159e-39
-0.66499722 0.51452351 1.4163333 5.9005049e-39
-0.65481555 0.51506573 1.4169999 5.4402484e-39
-0.64462006 0.51656479 1.4169999 5.3498801e-39
-0.63486141 0.51650441 1.4171538 7.4699844e-39
-0.62499726 0.51438993 1.4162728 9.2184686e-39
-0.615381 0.5128172 1.4170002 9.4943352e-39
-0.60635608 0.51153553 1.4142002 9.585442e-39
-0.59561318 0.51056403 1.4130001 1.0322285e-38
-0.58496791 0.51218361 1.4152501 1.0414837e-38
-0.5750286 0.51173246 1.4140003 1.0690711e-38
-0.56439263 0.51056403 1.4130001 1.0507044e-38
-0.55531502 0.51218367 1.4152501 1.096732e-38
-0.54555267 0.51110238 1.4130001 1.0876544e-38
-0.53828573 0.51002574 1.4130001 1.1705576e-38
-0.70111722 0.52079147 1.4130001 6.0891827e-39
-0.69529074 0.5224148 1.414091 6.0838116e-39
-0.68496865 0.52079147 1.4130001 6.1767443e-39
-0.67689431 0.52079147 1.4130001 7.0040036e-39
-0.63921434 0.52079147 1.4130001 5.6217194e-39
-0.69721144 0.53403151 1.4160001 9.1262645e-39
-0.69035149 0.54232287 1.4130001 1.041701e-38
-0.53607148 0.4899286 1.4250001 1.0874749e-38
-0.52385718 0.4899286 1.4250001 1.124534e-38
-0.63378578 0.49807146 1.4250001 8.5698636e-39
-0.60121435 0.49807146 1.4250001 9.3070629e-39
-0.59035718 0.49807146 1.4250001 9.4918199e-39
-0.58492863 0.49807149 1.4250001 9.2166651e-39
-0.57678574 0.49807146 1.4250001 9.399606e-39
-0.5523572 0.49807146 1.4250001 1.0597437e-38
-0.54502863 0.49590006 1.4250001 1.0506331e-38
-0.53483772 0.49511045 1.4250002 1.1059855e-38
-0.52589285 0.49332145 1.4250001 1.1336825e-38
-0.70571434 0.5089286 1.4250001 7.556062e-39
-0.6921429 0.5089286 1.4250001 8.1070651e-39
-0.68535721 0.50892866 1.4250001 7.9244633e-39
-0.67721432 0.50892866 1.4250001 8.2017775e-39
-0.66454768 0.50892866 1.4250001 8.4783756e-39
-0.65312505 0.50723219 1.4250001 8.3861926e-39
-0.64498222 0.50655359 1.4250001 9.0315816e-39
-0.63469058 0.50500798 1.4250001 9.3063524e-39
-0.6242857 0.50553578 1.4250001 9.3999647e-39
-0.61478579 0.50666672 1.4250001 1.0043173e-38
-0.60528582 0.50417858 1.4250001 9.6751265e-39
-0.59442866 0.50350004 1.4250001 9.6762125e-39
-0.58492863 0.50350004 1.4250001 9.7684054e-39
-0.57542861 0.50214291 1.4250001 9.7684011e-39
-0.56420135 0.50325328 1.4250002 1.032122e-38
-0.55541074 0.50316077 1.4250001 1.0413406e-38
-0.54638577 0.50132865 1.4250001 1.1150981e-38
-0.53878576 0.50078577 1.4250001 1.1336081e-38
-0.70435727 0.51300007 1.4250001 7.6493226e-39
-0.69553578 0.51401788 1.4250001 8.1081651e-39
-0.68535721 0.51232141 1.4250001 7.741891e-39
-0.67450011 0.51254767 1.4250001 8.0174213e-39
-0.66590482 0.51254767 1.4250001 8.0191939e-39
-0.65414286 0.51300001 1.4250001 7.9280843e-39
-0.64464295 0.51300001 1.4250001 9.1237632e-39
-0.6378572 0.51300001 1.4250001 9.9513449e-39
-0.54393339 0.4888086 1.4350002 1.0136463e-38
-0.53486121 0.48899147 1.4334002 1.0507044e-38
-0.64322865 0.49952862 1.437 8.1099714e-39
-0.63586807 0.49759945 1.4346001 8.1096127e-39
-0.6254372 0.49952862 1.437 8.7556841e-39
-0.61527073 0.49835554 1.4370002 8.847521e-39
-0.60441029 0.49707064 1.4344288 8.9397195e-39
-0.59397435 0.49601179 1.433 9.215233e-39
-0.58506918 0.4957509 1.434 8.847877e-39
-0.5750854 0.49815068 1.4352858 9.4918199e-39
-0.56415641 0.49697763 1.4352859 1.0135384e-38
-0.55529946 0.49438462 1.4340001 9.8605954e-39
-0.54750919 0.49240175 1.4322001 1.0044989e-38
-0.53271341 0.49176669 1.4330001 1.096766e-38
-0.71439433 0.50774002 1.437 7.0961628e-39
-0.70390195 0.50682771 1.437 7.5539292e-39
-0.69517529 0.50702953 1.4350002 7.8312181e-39
-0.68435097 0.50702107 1.4342728 7.740826e-39
-0.67523265 0.50676632 1.4358001 8.2018097e-39
-0.66509646 0.50554776 1.4335715 8.2939703e-39
-0.65493238 0.50305754 1.4323335 8.2014286e-39
-0.64462864 0.50281572 1.4317501 8.5702265e-39
-0.63488376 0.50202578 1.4318573 8.7546178e-39
-0.62448651 0.50299937 1.4332501 9.1226618e-39
-0.61548865 0.50322068 1.4336667 9.4918044e-39
-0.60579002 0.50153148 1.4310001 9.5829295e-39
-0.59693146 0.50016862 1.4310001 9.4910996e-39
-0.58194005 0.50016862 1.4310001 9.3084628e-39
-0.57376289 0.50016868 1.4310001 9.675858e-39
-0.56422287 0.50016862 1.4310001 1.0228681e-38
-0.55740863 0.50016862 1.4310001 1.0321928e-38
-0.71407032 0.51059604 1.4358001 7.2805555e-39
-0.70414114 0.51137894 1.4334002 7.7386708e-39
-0.69914573 0.51107144 1.4310001 7.9226935e-39
-0.67558765 0.51067531 1.4350002 8.2021685e-39
-0.66916293 0.51107144 1.4310001 8.4783812e-39
-0.62514007 0.48990005 1.4490001 8.018454e-39
-0.61465204 0.48934802 1.4490002 8.1117455e-39
-0.60444003 0.48852003 1.4490001 8.1106623e-39
-0.5934 0.48990002 1.4490001 8.2017943e-39
-0.58236003 0.48990002 1.4490001 8.5705908e-39
-0.57490796 0.48879606 1.4490002 8.293641e-39
-0.56538701 0.4872213 1.4483335 8.4794658e-39
-0.55467248 0.4858523 1.445182 9.123745e-39
-0.54466212 0.48610315 1.4451818 9.6762055e-39
-0.53552669 0.48532221 1.4463334 9.6769244e-39
-0.73002005 0.49680004 1.4490001 6.6326595e-39
-0.72505206 0.49707603 1.4490002 6.4493613e-39
-0.71484005 0.49818003 1.4490001 6.3568027e-39
-0.70518005 0.49818003 1.4490001 6.909622e-39
-0.6946975 0.49725947 1.4463335 6.7263181e-39
-0.6843273 0.49664113 1.4457694 6.9092646e-39
-0.67479718 0.49576575 1.4460001 7.3705959e-39
-0.66547507 0.49738309 1.4466925 7.6489737e-39
-0.65501279 0.49717489 1.4468184 7.8323013e-39
-0.6455515 0.49526179 1.4466925 7.8326643e-39
-0.6347568 0.4956966 1.4466001 8.0181065e-39
-0.62522006 0.49576575 1.4460001 8.2957822e-39
-0.6154657 0.49429691 1.4457273 8.2950661e-39
-0.60523105 0.49456149 1.4465002 8.5709356e-39
-0.59482574 0.49415812 1.4480003 8.4776595e-39
-0.5846675 0.4942503 1.4472002 8.6624319e-39
-0.57481813 0.49502382 1.4445 9.2152232e-39
-0.56522411 0.49258333 1.4430001 9.3085006e-39
-0.55727291 0.49130717 1.4430001 9.2163022e-39
-0.53734577 0.49062005 1.4430001 1.0415205e-38
-0.7233122 0.50273573 1.44525 6.5433464e-39
-0.71486694 0.50363761 1.4448751 6.6351847e-39
-0.70555508 0.50342941 1.4446365 7.0950978e-39
-0.69538867 0.50298858 1.443 7.1876592e-39
-0.68384469 0.50381321 1.443 7.4635272e-39
-0.67477435 0.50298858 1.4430001 7.8319426e-39
-0.66515434 0.50161433 1.4430001 7.8329964e-39
-0.65416002 0.50161433 1.4430001 8.2014384e-39
-0.63354576 0.50161433 1.4430001 8.5712957e-39
-0.53627145 0.47530004 1.455 8.9400558e-39
-0.67484289 0.48915717 1.455 7.0943537e-39
-0.65267146 0.48915717 1.455 7.6489975e-39
-0.6443572 0.48915717 1.4550002 7.7404476e-39
-0.63465714 0.48915717 1.455 7.7408148e-39
-0.62565005 0.48846433 1.455 7.9259067e-39
-0.6152572 0.48777145 1.455 8.0198904e-39
-0.6055572 0.48804861 1.455 8.017375e-39
-0.59502572 0.48804861 1.455 8.1099518e-39
-0.58394009 0.48860288 1.455 8.386187e-39
-0.57437861 0.48569289 1.455 8.0184764e-39
-0.56620288 0.48416862 1.455 8.3869002e-39
-0.55428576 0.48361433 1.455 8.847521e-39
-0.54458582 0.48361433 1.4550002 9.2155889e-39
-0.53627145 0.48269051 1.4550002 9.4939554e-39
-0.7330429 0.49608576 1.455 6.3564244e-39
-0.72472858 0.49608576 1.455 6.3564524e-39
-0.71502858 0.49747145 1.455 6.1738422e-39
-0.70463574 0.49677861 1.455 6.7241587e-39
-0.69562864 0.49470004 1.455 6.449727e-39
-0.68537438 0.49303719 1.455 6.3586104e-39
-0.67414999 0.49262145 1.455 7.2780373e-39
-0.66514295 0.4933143 1.455 7.4631531e-39
-0.65544289 0.49262145 1.455 7.6479087e-39
-0.64574289 0.49192861 1.455 7.8322845e-39
-0.63604295 0.49192864 1.4550002 7.9255577e-39
-0.60347867 0.49262148 1.455 8.2021432e-39
-0.59170002 0.49192861 1.455 8.2943543e-39
-0.58892864 0.49192861 1.455 8.3865569e-39
-0.73581433 0.50024289 1.455 6.9074457e-39
-0.54628289 0.46664575 1.4670001 7.9262976e-39
-0.7027629 0.47922003 1.4670001 6.2638728e-39
-0.66364288 0.47922003 1.4670001 6.7273803e-39
-0.64548004 0.47922003 1.4670001 6.8177823e-39
-0.63430285 0.47922003 1.4670001 6.8199319e-39
-0.62731719 0.47922003 1.4670001 5.9026545e-39
-0.61414415 0.47802246 1.4670002 7.3713176e-39
-0.60496294 0.47782287 1.4670002 7.5571283e-39
-0.59498334 0.47802246 1.4670002 7.6475289e-39
-0.58540291 0.47782287 1.4670002 7.832646e-39
-0.57562286 0.47782284 1.4670001 7.9244759e-39
-0.56444573 0.47782284 1.4670001 8.0170457e-39
-0.55473149 0.47653002 1.4662501 8.4780183e-39
-0.54473239 0.4750289 1.4636668 8.2950591e-39
-0.5384829 0.47447717 1.4610001 8.6645619e-39
-0.74188292 0.48620576 1.4670001 6.3546293e-39
-0.73549598 0.4864054 1.4670002 5.8954574e-39
-0.72791147 0.48760289 1.4670001 5.0703813e-39
-0.71394008 0.48620579 1.4670002 5.8050737e-39
-0.70554698 0.48516688 1.4664 6.0809361e-39
-0.69577336 0.48534 1.4665003 6.1734975e-39
-0.68413299 0.48684672 1.4656668 6.3578761e-39
-0.67482764 0.4869343 1.4650002 6.727023e-39
-0.66477436 0.48552513 1.4658004 6.7273873e-39
-0.65528584 0.48570427 1.4655002 7.186206e-39
-0.6452685 0.48517889 1.4642004 7.0028966e-39
-0.63449663 0.48486114 1.4638005 7.4645838e-39
-0.62463719 0.48520577 1.4640002 7.6496869e-39
-0.61513096 0.48411191 1.4635003 7.7415196e-39
-0.60493428 0.48437536 1.4626366 7.9252102e-39
-0.59508938 0.4844901 1.4638005 8.1088686e-39
-0.58496726 0.48464334 1.4630003 8.2932697e-39
-0.57573187 0.48259392 1.4627146 8.1099364e-39
-0.56517303 0.48215592 1.4636668 8.2943431e-39
-0.55507952 0.48210692 1.4622 9.0304662e-39
-0.54571927 0.48168075 1.4617501 8.9389908e-39
-0.53755534 0.4809705 1.4610002 9.3095572e-39
-0.74467719 0.49239311 1.4670002 5.9876573e-39
-0.73489976 0.49330992 1.4646003 5.896528e-39
-0.72483099 0.49383664 1.4659094 5.5295434e-39
-0.71568573 0.49386081 1.4648576 5.8969106e-39
-0.70547599 0.49254763 1.4623334 6.2639008e-39
-0.69629043 0.49177599 1.4628003 6.1738604e-39
-0.68598008 0.49150857 1.4620001 6.5426359e-39
-0.67297626 0.49091527 1.4630002 7.2780373e-39
-0.6651029 0.49117431 1.4610001 7.3698756e-39
-0.6553629 0.49117431 1.4610001 7.6479073e-39
-0.74467719 0.50297147 1.4670001 6.6326595e-39
-0.57189816 0.46902198 1.473 7.5557004e-39
-0.5649507 0.46795309 1.4730002 7.6478975e-39
-0.5559991 0.46808666 1.473 8.0166912e-39
-0.73930573 0.4783743 1.473 5.3455445e-39
-0.71265149 0.4783743 1.473 6.5386828e-39
-0.7042343 0.4783743 1.473 6.2631707e-39
-0.69722003 0.4783743 1.473 6.4479334e-39
-0.68319148 0.47837433 1.473 6.0812976e-39
-0.67407292 0.47767287 1.473 6.540845e-39
-0.66511017 0.47650379 1.473 6.6344658e-39
-0.65513432 0.47837433 1.473 6.7266488e-39
-0.64426214 0.4766207 1.473 7.0018176e-39
-0.63549429 0.47556856 1.473 6.7277348e-39
-0.62614191 0.47650379 1.473 6.4511465e-39
-0.61445147 0.47556859 1.473 7.2783779e-39
-0.60182577 0.47556859 1.473 7.4635048e-39
-0.59481144 0.47486714 1.473 7.4635118e-39
-0.58499146 0.47416574 1.473 7.6478961e-39
-0.57517147 0.47416571 1.473 7.6479031e-39
-0.56535149 0.47416574 1.473 7.83303e-39
-0.55525088 0.47332403 1.473 8.1103231e-39
-0.54851717 0.47416574 1.473 8.018852e-39
-0.75108975 0.4845469 1.473 5.987639e-39
-0.7456187 0.48398572 1.473 5.8039736e-39
-0.73453599 0.48342463 1.4729999 5.5288301e-39
-0.72527713 0.48538861 1.4729999 5.6210411e-39
-0.71686006 0.48328429 1.473 6.2635267e-39
-0.70376676 0.48118004 1.473 6.2631679e-39
-0.6938532 0.48230234 1.473 6.3578943e-39
-0.68475014 0.4830505 1.473 6.0816437e-39
-0.67533553 0.48230234 1.473 6.3579181e-39
-0.66448671 0.48118004 1.473 6.8188472e-39
-0.65653718 0.48118004 1.473 7.0010693e-39
-0.62567431 0.48118004 1.473 6.912852e-39
-0.75333434 0.49240288 1.473 5.7121382e-39
-0.5731715 0.45995241 1.4860001 6.8213724e-39
-0.56609523 0.45995241 1.4860001 6.5462344e-39
-0.55618858 0.45995241 1.4860001 8.1085127e-39
-0.67509973 0.46875307 1.4840001 6.4482837e-39
-0.6660229 0.46801701 1.4826666 6.8149222e-39
-0.65242481 0.46844384 1.4860001 6.4508102e-39
-0.64959431 0.46844384 1.4860001 6.5426457e-39
-0.60147625 0.46844384 1.4860001 7.2780359e-39
-0.59400153 0.46824881 1.4836 7.2783961e-39
-0.58472431 0.46749386 1.483 7.1865718e-39
-0.57535964 0.46582729 1.4832308 7.1872738e-39
-0.56494957 0.46419975 1.4830002 7.187648e-39
-0.55732131 0.46592638 1.4840001 7.7401099e-39
-0.75375587 0.47863361 1.4860001 5.803968e-39
-0.74502188 0.4785527 1.4860002 5.4362954e-39
-0.73521626 0.47905815 1.4860001 5.5273699e-39
-0.7247898 0.47746724 1.4851429 6.0787907e-39
-0.71466202 0.47596899 1.483 6.1709919e-39
-0.7047798 0.47676131 1.484 6.0798543e-39
-0.69558954 0.47835052 1.4860001 6.1734933e-39
-0.68498814 0.47574338 1.4844999 6.264977e-39
-0.67514861 0.47407323 1.4808571 6.9074626e-39
-0.66357374 0.47369981 1.4812001 6.6334008e-39
-0.65560722 0.47459522 1.4827274 6.7263083e-39
-0.64604038 0.47238785 1.4824001 6.725951e-39
-0.6341908 0.47219932 1.48225 6.9099765e-39
-0.62511766 0.4728612 1.483 6.7262845e-39
-0.61488247 0.47369 1.4825 6.9099821e-39
-0.6059494 0.47351655 1.4823999 7.2787688e-39
-0.59481907 0.4721905 1.48 7.4635104e-39
-0.58495247 0.4721905 1.48 7.4653279e-39
-0.57931435 0.4721905 1.48 7.4652999e-39
-0.75550485 0.48064765 1.48 5.8039835e-39
-0.74469846 0.48064765 1.48 5.3455248e-39
-0.73365718 0.48135242 1.48 5.529172e-39
-0.72449529 0.48064765 1.48 6.6297911e-39
-0.69489527 0.48064765 1.48 6.3578747e-39
-0.58104098 0.44970003 1.4990001 7.0932845e-39
-0.57675815 0.44970003 1.4990001 7.0947209e-39
-0.56333858 0.44855794 1.4990001 7.4634936e-39
-0.78661817 0.45541051 1.4990001 5.8965588e-39
-0.66241527 0.45826575 1.4990001 6.3561035e-39
-0.65527719 0.45683813 1.4990001 6.6323288e-39
-0.64581943 0.45856658 1.4960001 6.5408422e-39
-0.63467228 0.45854649 1.4962001 6.4500787e-39
-0.6262185 0.45849973 1.4966668 7.0003686e-39
-0.61488515 0.45724261 1.4970001 6.8177753e-39
-0.60515529 0.45747 1.4974446 6.9085416e-39
-0.59533781 0.45754799 1.4966668 6.6344812e-39
-0.58490449 0.45671543 1.4955003 7.0032399e-39
-0.57567477 0.45605657 1.495182 7.09616e-39
-0.56547183 0.45635876 1.4943336 7.4635174e-39
-0.55843431 0.45754671 1.4920001 7.7397358e-39
-0.7818594 0.46397623 1.4990001 5.8072359e-39
-0.77468002 0.46652001 1.498 6.1717052e-39
-0.76472801 0.46968669 1.4990001 5.6210467e-39
-0.75521058 0.46968669 1.4990001 5.8958218e-39
-0.7452172 0.46968669 1.4990001 5.8039835e-39
-0.72502667 0.46846303 1.4990001 6.7237902e-39
-0.71580821 0.46797356 1.4990001 6.7241503e-39
-0.7046904 0.46629348 1.4964548 6.4472005e-39
-0.69543529 0.46617311 1.4977275 6.2635281e-39
-0.68497795 0.46554574 1.4975003 6.0802088e-39
-0.67516226 0.46515083 1.4966668 6.1731499e-39
-0.66484088 0.46489182 1.496308 6.3564524e-39
-0.65571743 0.46466288 1.4948002 6.6341211e-39
-0.64448047 0.4641358 1.4934005 6.8174095e-39
-0.63481051 0.46500671 1.4920001 6.9099555e-39
-0.62523031 0.46414718 1.4930004 7.0932761e-39
-0.61527562 0.46429846 1.4927002 6.8177682e-39
-0.60573149 0.46414718 1.4930004 6.909259e-39
-0.59578514 0.46383953 1.4920001 6.9103324e-39
-0.58604139 0.46302757 1.4920001 7.0954369e-39
-0.57548577 0.46323049 1.4920001 7.005758e-39
-0.56269717 0.46323049 1.4920001 7.6482604e-39
-0.77260709 0.47393546 1.4962001 6.1695458e-39
-0.76567614 0.47584018 1.4966669 5.8032702e-39
-0.75452572 0.47317716 1.4920002 6.0802032e-39
-0.74473912 0.47378418 1.4925388 5.711076e-39
-0.73503196 0.47451296 1.4941542 5.711799e-39
-0.72508579 0.47352642 1.4951112 6.3557531e-39
-0.71417069 0.47204041 1.4920001 6.5386983e-39
-0.70422405 0.4726088 1.4920002 5.9876811e-39
-0.69547731 0.47349295 1.4920002 6.08059e-39
-0.68745685 0.47204041 1.4920001 6.1727814e-39
-0.67779434 0.47033527 1.4920001 6.5404793e-39
-0.66216385 0.47033527 1.4920001 6.8170998e-39
-0.65790099 0.47033527 1.4920001 6.5422856e-39
-0.64511245 0.47033527 1.4920001 6.7255852e-39
-0.63516575 0.4703353 1.4920001 6.8174488e-39
-0.62521911 0.47033527 1.4920001 6.8177767e-39
-0.61527246 0.4703353 1.4920001 6.816664e-39
-0.60816765 0.47033527 1.4920001 7.2776772e-39
-0.77234197 0.48110765 1.4990001 5.1611574e-39
-0.76614392 0.4815045 1.4943335 5.7121746e-39
-0.58088577 0.43745717 1.506 7.0025028e-39
-0.60096574 0.44893146 1.506 6.6333994e-39
-0.59236002 0.44893146 1.506 6.9085444e-39
-0.58447152 0.44534573 1.5060003 7.0010987e-39
-0.57637805 0.4452433 1.506 7.0028742e-39
-0.56941146 0.44749719 1.506 7.3723671e-39
-0.79029149 0.45466861 1.506 6.356088e-39
-0.67363632 0.456581 1.506 6.8163375e-39
-0.66612333 0.45589805 1.506 6.2660658e-39
-0.65475148 0.45538577 1.506 6.5429946e-39
-0.64590669 0.45658097 1.506 6.3582559e-39
-0.63538861 0.45753717 1.506 6.5408549e-39
-0.62448806 0.45696345 1.506 7.0003771e-39
-0.61578673 0.45371243 1.506 7.0021637e-39
-0.60574669 0.45371237 1.5060002 6.909259e-39
-0.59522867 0.45323431 1.506 6.3596908e-39
-0.58805716 0.45323431 1.506 7.0932887e-39
-0.5734275 0.45409489 1.506 7.3720266e-39
-0.56367433 0.45610291 1.506 7.4631615e-39
-0.78455436 0.46231815 1.506 5.5302804e-39
-0.7742275 0.46671662 1.506 6.2631876e-39
-0.76447439 0.46757719 1.506 5.8036429e-39
-0.75443429 0.46757719 1.506 5.9883691e-39
-0.74496812 0.46786404 1.506 6.3553468e-39
-0.73373973 0.46696252 1.506 6.0809333e-39
-0.72359723 0.46542576 1.506 6.5393905e-39
-0.71570867 0.46470863 1.506 6.3557405e-39
-0.70628333 0.46163514 1.506 6.1731401e-39
-0.6962024 0.46155319 1.506 6.0816606e-39
-0.68463248 0.46184 1.506 6.2649714e-39
-0.67554855 0.46184009 1.506 6.4489913e-39
-0.66981149 0.46184003 1.506 6.3564188e-39
-0.7831201 0.47474861 1.506 6.0798515e-39
-0.77021146 0.47188002 1.506 5.1618763e-39
-0.74152577 0.47188002 1.506 5.1625783e-39
-0.73722291 0.47188002 1.506 5.5313622e-39
-0.61194003 0.43834004 1.5190001 6.9099821e-39
-0.68355006 0.44919002 1.5190001 6.4511549e-39
-0.67559338 0.44846672 1.5190001 6.172745e-39
-0.66643119 0.44894892 1.5190001 6.7248608e-39
-0.65476137 0.44875604 1.5190001 6.6337427e-39
-0.64521337 0.44846669 1.5190001 6.6348203e-39
-0.63581002 0.44919002 1.5190001 6.7259482e-39
-0.62496006 0.44702002 1.5190001 6.7241629e-39
-0.61483705 0.4464682 1.5182223 7.0000267e-39
-0.60472721 0.44574913 1.5175003 6.9081912e-39
-0.59544009 0.44568002 1.5120001 6.2664049e-39
-0.58896005 0.44496006 1.5120001 7.4602832e-39
-0.57504004 0.44544005 1.5120001 7.0036014e-39
-0.56784004 0.44688004 1.5120001 7.1883388e-39
-0.79056007 0.45936003 1.5120001 5.528519e-39
-0.74214005 0.45859337 1.5190001 5.9887559e-39
-0.73490679 0.4571467 1.5190001 6.1727926e-39
-0.72535866 0.45743605 1.5190001 6.8170732e-39
-0.71465337 0.45714664 1.5190001 6.4500745e-39
-0.70452678 0.45714673 1.5190001 6.6312344e-39
-0.69472092 0.45760417 1.5181251 5.9883859e-39
-0.68383336 0.45572224 1.5158889 6.2653358e-39
-0.67640013 0.45381558 1.5143335 6.540817e-39
-0.66566586 0.45242086 1.5128751 6.5419058e-39
-0.65520012 0.45216 1.5120001 6.5429862e-39
-0.64498919 0.45333815 1.5120001 6.3582432e-39
-0.63504803 0.45372936 1.5134001 6.6330491e-39
-0.62568003 0.45324001 1.5120001 6.7248538e-39
-0.61488008 0.45072004 1.5120001 7.0014519e-39
-0.60528004 0.45072004 1.5120001 6.7245062e-39
-0.59760004 0.45072004 1.5120001 6.6330169e-39
-0.7913267 0.46438003 1.5190001 5.4384688e-39
-0.78423738 0.46279469 1.5176001 5.8043576e-39
-0.77503598 0.46399599 1.5163078 5.9865951e-39
-0.7637856 0.4640367 1.5131668 5.9873097e-39
-0.75473267 0.46438748 1.5158889 6.1713212e-39
-0.74408454 0.46510968 1.5151112 6.0802004e-39
-0.73436743 0.46301672 1.5155001 6.0805703e-39
-0.72492862 0.46232861 1.5150001 6.3550133e-39
-0.71547556 0.46173781 1.5166668 6.2649742e-39
-0.70452678 0.4614867 1.5190001 6.263884e-39
-0.69295347 0.4614867 1.5190001 5.8969064e-39
-0.68976003 0.46224004 1.5120001 6.1720555e-39
-0.61580956 0.43716669 1.5250001 7.1862088e-39
-0.78864288 0.44878575 1.5250001 5.8940183e-39
-0.72183341 0.44878575 1.5250001 6.2646001e-39
-0.7116667 0.44878575 1.5250001 6.4497298e-39
-0.70585716 0.44878575 1.5250001 5.4388205e-39
-0.69569051 0.44878575 1.5250001 6.7270272e-39
-0.68649215 0.44684923 1.5250001 6.6351819e-39
-0.67535716 0.44515479 1.5250001 6.4493543e-39
-0.66470641 0.44620371 1.5250001 6.6330393e-39
-0.65502381 0.44442856 1.5250001 6.8170564e-39
-0.64485717 0.44442859 1.5250001 6.8185011e-39
-0.63505363 0.44551787 1.5250001 6.8167005e-39
-0.62355566 0.44297624 1.5250001 6.6330407e-39
-0.61435717 0.44152382 1.5250001 6.725951e-39
-0.80026197 0.45314288 1.5250001 6.08022e-39
-0.78670645 0.45507941 1.5250001 5.7125123e-39
-0.77586192 0.4551762 1.5250001 6.0798319e-39
-0.75378573 0.45750004 1.5250001 6.0816479e-39
-0.74565244 0.4557572 1.5250001 5.9894691e-39
-0.73403341 0.4540143 1.5250001 5.9894803e-39
-0.72473818 0.45376533 1.5250002 6.264984e-39
-0.71457148 0.45314291 1.5250001 6.3578915e-39
-0.70440483 0.45314288 1.5250001 6.17278e-39
-0.69569051 0.45376533 1.5250002 6.266056e-39
-0.79445243 0.46234131 1.5250001 5.8965799e-39
-0.78573817 0.46040481 1.5250001 5.9880286e-39
-0.77470011 0.46098575 1.5250001 6.2617274e-39
-0.76467866 0.46258336 1.5250001 6.2624645e-39
-0.75503075 0.46164975 1.5250002 6.2638728e-39
-0.74797624 0.46185717 1.5250001 5.9887419e-39
-0.68448865 0.4382486 1.539 6.7255796e-39
-0.66543436 0.4382486 1.539 6.910701e-39
-0.65517437 0.4382486 1.539 6.9103352e-39
-0.64539564 0.43855688 1.5366668 6.7266614e-39
-0.63382769 0.4376753 1.5370002 6.6344714e-39
-0.62554157 0.43736422 1.5346251 6.8181382e-39
-0.81054008 0.44997433 1.539 6.079504e-39
-0.80521786 0.44872981 1.53725 5.8958204e-39
-0.79226291 0.44792765 1.5320001 6.1698793e-39
-0.78269148 0.44997433 1.539 6.0809277e-39
-0.77536291 0.44997433 1.539 6.0816536e-39
-0.76730144 0.44924146 1.539 5.8994161e-39
-0.75410998 0.44924146 1.539 6.1738408e-39
-0.74546236 0.44938803 1.539 6.357167e-39
-0.73432297 0.44850862 1.539 6.5408212e-39
-0.72545224 0.44780618 1.5376 6.357153e-39
-0.7147184 0.44584727 1.5358181 6.6330323e-39
-0.70490247 0.4457669 1.5364546 6.2671336e-39
-0.6945253 0.44384849 1.5357691 6.8181466e-39
-0.68400186 0.44284394 1.5346251 6.6337553e-39
-0.67602032 0.44287193 1.53725 6.8177781e-39
-0.6658746 0.44255924 1.5358889 6.542989e-39
-0.65572351 0.44172689 1.5348001 6.7270118e-39
-0.64469624 0.44170088 1.5350002 6.7266586e-39
-0.63468575 0.44209146 1.5320001 6.5415275e-39
-0.6259315 0.44209146 1.5320001 6.725951e-39
-0.80369627 0.45445275 1.5343335 5.8965476e-39
-0.79597253 0.45555171 1.5340999 5.8036317e-39
-0.78464574 0.45486003 1.539 5.7128612e-39
-0.77402276 0.45595348 1.5358181 6.1720499e-39
-0.76458502 0.45617241 1.5361999 6.2656861e-39
-0.7545504 0.45464864 1.5350002 6.1741925e-39
-0.74452078 0.45297924 1.5350002 6.2649672e-39
-0.73536003 0.45230478 1.5320001 6.7241517e-39
-0.72514677 0.45084575 1.5320001 6.4482711e-39
-0.71931052 0.45084575 1.5320001 6.6337511e-39
-0.70472002 0.45084575 1.5320001 5.8079688e-39
-0.8076086 0.46170002 1.539 6.2642455e-39
-0.79443336 0.46224543 1.5343335 6.0798767e-39
-0.78708863 0.46170002 1.539 5.6192279e-39
-0.77183622 0.46251813 1.5320001 5.7121564e-39
-0.76891816 0.46251813 1.5320001 6.1720555e-39
-0.637541 0.42846289 1.5460001 7.0940104e-39
-0.69054669 0.43729717 1.5460001 6.357523e-39
-0.68406832 0.43611929 1.5460001 6.8163389e-39
-0.67540228 0.43519381 1.5460002 6.6337553e-39
-0.66614723 0.43603516 1.5460002 7.0014729e-39
-0.65579849 0.43611929 1.5460001 7.1854816e-39
-0.6446926 0.43603516 1.5460002 6.8181564e-39
-0.63533241 0.43361622 1.5460001 7.0010917e-39
-0.81422681 0.44760382 1.5460002 6.3567719e-39
-0.80735564 0.44711304 1.5460002 5.9879866e-39
-0.79529607 0.4448694 1.5460002 6.2631567e-39
-0.78448457 0.44524804 1.5460004 6.4489927e-39
-0.77457064 0.44436464 1.5460001 5.9898209e-39
-0.76416576 0.44465908 1.5460002 6.2653007e-39
-0.7559858 0.44416827 1.5460002 6.2656973e-39
-0.74491161 0.44499889 1.5460001 6.3568041e-39
-0.73429751 0.44402808 1.5460002 5.9905565e-39
-0.72588384 0.44318673 1.5460002 6.5408254e-39
-0.7153669 0.44150403 1.5460002 6.6330197e-39
-0.70600671 0.44097814 1.5460001 6.5418918e-39
-0.69643629 0.44024193 1.5460002 6.6340987e-39
-0.68171245 0.44024193 1.5460001 6.8181228e-39
-0.67729533 0.44024193 1.5460001 6.5429932e-39
-0.80539244 0.45202097 1.5460001 5.8029045e-39
-0.79420233 0.45319888 1.5460001 6.1702464e-39
-0.7788896 0.45202097 1.5460001 6.2646085e-39
-0.76416576 0.45202097 1.5460001 6.2660168e-39
-0.68479908 0.42744479 1.5530001 6.6334064e-39
-0.65521812 0.42596573 1.5530002 6.7262817e-39
-0.6448648 0.42744479 1.5530001 6.9099751e-39
-0.80115092 0.43829116 1.5530002 6.5415541e-39
-0.79484028 0.43809396 1.5530001 6.2656959e-39
-0.78463483 0.43853766 1.5530001 5.8979699e-39
-0.77452797 0.43730512 1.5530002 5.8968853e-39
-0.76509029 0.43716431 1.5530002 5.8047037e-39
-0.75579333 0.43927717 1.5530002 6.1717094e-39
-0.74544001 0.43927717 1.5530001 6.2646141e-39
-0.73212862 0.43927717 1.5530001 7.0936363e-39
-0.72433001 0.43658799 1.5530002 6.5419072e-39
-0.71438009 0.43631908 1.5530002 6.3571572e-39
-0.70580155 0.43572751 1.5530003 6.2656889e-39
-0.69526625 0.43449873 1.5530001 6.1734947e-39
-0.68479913 0.4318819 1.5530002 6.7245034e-39
-0.67423457 0.4316707 1.5530002 6.9099723e-39
-0.66409242 0.43251586 1.5530002 6.8177851e-39
-0.65521812 0.43251586 1.5530002 6.9092576e-39
-0.64676642 0.43251577 1.5530002 7.092937e-39
-0.63648355 0.43237495 1.5530002 7.2769541e-39
-0.82087147 0.44519335 1.5530001 7.0039406e-39
-0.81495523 0.44519338 1.5530002 6.5415247e-39
-0.80396813 0.44561595 1.5530002 5.8950861e-39
-0.79484028 0.44637662 1.5530001 5.9883845e-39
-0.78833246 0.44223526 1.5530001 6.633007e-39
-0.7543143 0.44223526 1.5530001 6.4486522e-39
-0.74544007 0.44223526 1.5530001 6.3568097e-39
-0.7380448 0.44223526 1.5530001 6.1735003e-39
-0.806081 0.45110956 1.5530001 5.8028848e-39
-0.7972067 0.45110956 1.5530001 6.7219839e-39
-0.66261721 0.41935909 1.567 7.3684547e-39
-0.81036294 0.42831337 1.567 7.6467988e-39
-0.78200769 0.42831337 1.567 6.1727646e-39
-0.77579391 0.42884243 1.5635 5.8039765e-39
-0.7342515 0.42831337 1.567 6.2638938e-39
-0.72529721 0.42731842 1.5670002 6.1720457e-39
-0.71477658 0.4276711 1.5646669 6.4482767e-39
-0.70547932 0.42745864 1.5652502 6.35716e-39
-0.69466162 0.42642865 1.5646667 6.4493683e-39
-0.68497336 0.42734095 1.5646669 6.5411982e-39
-0.67454231 0.42767116 1.5646667 7.0021651e-39
-0.6644851 0.42511645 1.5635002 6.9099737e-39
-0.65445715 0.42565718 1.5600001 7.0010833e-39
-0.64925718 0.42640004 1.5600001 6.8181312e-39
-0.81036294 0.43129814 1.567 7.4616999e-39
-0.80341566 0.43317902 1.5643752 6.8177977e-39
-0.79514813 0.43591461 1.5635002 5.6224733e-39
-0.78626674 0.43379876 1.5642003 5.9894411e-39
-0.77566338 0.43282461 1.5617502 5.8046771e-39
-0.76507545 0.43376139 1.563182 5.8043352e-39
-0.75482464 0.43691763 1.5638183 6.2646141e-39
-0.74459165 0.43608075 1.5649003 6.1723876e-39
-0.73630214 0.43462378 1.5646669 6.3564426e-39
-0.72597778 0.43213397 1.5614001 6.4490222e-39
-0.7146982 0.43199465 1.5623335 6.3567957e-39
-0.70501363 0.4320817 1.5617501 6.3574992e-39
-0.83330929 0.44348505 1.56525 7.8326559e-39
-0.82366365 0.44323507 1.5628 7.187271e-39
-0.81466746 0.44295287 1.5630002 6.4489927e-39
-0.80971432 0.44422859 1.5600001 5.8021954e-39
-0.75325722 0.44125718 1.5600001 6.263898e-39
-0.74285722 0.44125718 1.5600001 6.2638882e-39
-0.73840004 0.44125718 1.5600001 6.4489927e-39
-0.75402099 0.41823432 1.5740001 5.8036359e-39
-0.72104198 0.41823432 1.5740001 6.2642455e-39
-0.71354669 0.41823432 1.5740001 6.1709835e-39
-0.7015543 0.41823432 1.5740001 6.0809193e-39
-0.69405913 0.41823432 1.5740001 6.3568139e-39
-0.68506479 0.41823432 1.5740001 6.9993275e-39
-0.67507118 0.41823432 1.5740001 7.092937e-39
-0.81248385 0.4272286 1.5740001 7.830851e-39
-0.80648768 0.4272286 1.5740001 7.5553529e-39
-0.7959944 0.42722863 1.5740001 6.8195675e-39
-0.78460163 0.42662898 1.5740002 6.1731275e-39
-0.77575719 0.42647907 1.5740001 5.7121466e-39
-0.7633484 0.42489681 1.5740002 5.7132228e-39
-0.75402105 0.42508715 1.5740002 6.1720639e-39
-0.74562639 0.42602935 1.5740002 6.1716828e-39
-0.73453337 0.42423055 1.5740002 5.988732e-39
-0.72404003 0.42273149 1.5740002 5.9890936e-39
-0.71504581 0.42273149 1.5740002 6.0813088e-39
-0.70455241 0.42273149 1.5740002 6.2653301e-39
-0.69330955 0.42198193 1.5740001 6.8163459e-39
-0.68506479 0.42273149 1.5740002 7.0003743e-39
-0.67521399 0.42251736 1.5740002 6.818141e-39
-0.83796769 0.43922099 1.5740001 7.9248431e-39
-0.8259753 0.43697241 1.5740001 7.6489652e-39
-0.81473243 0.43472385 1.5740001 7.3702302e-39
-0.80423909 0.43097621 1.5740001 7.0036183e-39
-0.79659396 0.43142596 1.5740002 6.3582278e-39
-0.78999817 0.43022668 1.5740001 6.35716e-39
-0.77500767 0.43022668 1.5740001 5.7114277e-39
-0.76301533 0.43247527 1.5740002 6.0805661e-39
-0.75402105 0.43172574 1.5740002 5.9890978e-39
-0.74502671 0.43097621 1.5740001 6.2642357e-39
-0.73003626 0.4332248 1.5740001 6.6323246e-39
-0.72703815 0.4332248 1.5740001 6.357167e-39
-0.83646864 0.44221908 1.5740001 7.8322943e-39
-0.81698102 0.44221908 1.5740001 6.5411898e-39
-0.68735862 0.39675575 1.5810001 6.9074542e-39
-0.70370007 0.4070867 1.5890001 6.632298e-39
-0.69437718 0.4050492 1.585 6.9996484e-39
-0.68510002 0.40353143 1.5810001 7.3662925e-39
-0.80206668 0.41919336 1.5890001 7.5560718e-39
-0.79450005 0.41919336 1.5890001 7.8308538e-39
-0.78693342 0.41919336 1.5890001 6.9096206e-39
-0.77482671 0.41843668 1.5890001 6.0809459e-39
-0.7634427 0.41612703 1.5855716 5.8961973e-39
-0.75447863 0.41575363 1.5860001 5.6192475e-39
-0.7449801 0.41761366 1.5881112 5.5281365e-39
-0.73422867 0.41525957 1.5881112 5.7114557e-39
-0.72402924 0.4165332 1.5858002 6.1716982e-39
-0.71615237 0.41672996 1.5878574 6.3553664e-39
-0.70527649 0.41387087 1.5846924 6.1731247e-39
-0.69335252 0.41425052 1.5834616 6.7241587e-39
-0.68628347 0.41470334 1.5867144 7.1833488e-39
-0.67807341 0.4160791 1.5810001 7.0003827e-39
-0.85200673 0.42827335 1.5890001 8.1096001e-39
-0.84633172 0.42562506 1.589 8.0181177e-39
-0.83600867 0.42654386 1.5890001 8.2932557e-39
-0.82480031 0.42740503 1.5845557 8.1078036e-39
-0.8146258 0.42390287 1.5840001 7.8312125e-39
-0.80612832 0.42458361 1.582778 7.6486023e-39
-0.79501718 0.42310581 1.5810002 7.187278e-39
-0.78490752 0.42224535 1.5810002 6.5408352e-39
-0.7754429 0.42310575 1.5810002 5.8965364e-39
-0.76490295 0.42109811 1.5810002 5.8039933e-39
-0.75285721 0.42160004 1.5810001 5.6199369e-39
-0.74532866 0.42224535 1.5810002 5.6199537e-39
-0.73457354 0.42310575 1.5810002 5.804345e-39
-0.72424865 0.42009431 1.5810001 6.0802144e-39
-0.71220291 0.42009431 1.5810001 6.5394017e-39
-0.7091915 0.42009431 1.5810001 6.3560852e-39
-0.67606574 0.42009431 1.5810001 6.7259482e-39
-0.8535201 0.43432665 1.5890001 7.925199e-39
-0.84506768 0.43435526 1.5854446 7.9244829e-39
-0.83616519 0.43445116 1.5824547 7.8333733e-39
-0.82462955 0.43481684 1.5810002 7.7397203e-39
-0.85200679 0.4434067 1.5890001 8.1092119e-39
-0.84470576 0.44268003 1.5810001 8.1092231e-39
-0.83516955 0.44418573 1.5810002 7.555713e-39
-0.82422811 0.44237891 1.5810002 7.0032357e-39
-0.70072007 0.39824003 1.5960001 6.8156215e-39
-0.69768006 0.39824003 1.5960001 6.8145284e-39
-0.73720002 0.40888003 1.5960001 5.9869622e-39
-0.72352004 0.40888003 1.5960001 6.8156102e-39
-0.71744001 0.40888003 1.5960001 6.4479053e-39
-0.70477343 0.40482673 1.5960001 6.7241293e-39
-0.81016004 0.41800001 1.5960001 7.6482646e-39
-0.80408013 0.41800004 1.5960001 7.7401113e-39
-0.79496002 0.41648 1.5960001 7.6475443e-39
-0.78584009 0.41678405 1.5960001 6.910701e-39
-0.77550405 0.41617605 1.5960001 6.5412066e-39
-0.7645601 0.41394672 1.5960001 6.2638994e-39
-0.75696003 0.41192004 1.5960001 6.1713381e-39
-0.7457121 0.41374403 1.5960001 5.435938e-39
-0.7335521 0.41374406 1.5960001 5.8033094e-39
-0.72504008 0.41344008 1.5960001 6.2635225e-39
-0.71794671 0.41293335 1.5960001 6.263863e-39
-0.86184007 0.42560002 1.5960001 8.2006943e-39
-0.85636806 0.42468801 1.5960001 8.1092526e-39
-0.84420806 0.42286402 1.5960001 7.9269941e-39
-0.83549345 0.42306671 1.5960001 8.0188184e-39
-0.82384002 0.42104003 1.5960001 7.8333705e-39
-0.81472003 0.42104003 1.5960001 7.5567766e-39
-0.78584003 0.42104003 1.5960001 6.2660532e-39
-0.86184013 0.4332 1.5960001 7.9259193e-39
-0.85880005 0.43016002 1.5960001 8.1096029e-39
-0.70582902 0.39642447 1.603 6.540824e-39
-0.77096671 0.40762001 1.603 7.8294076e-39
-0.76486003 0.40762004 1.603 7.0918482e-39
-0.75570005 0.40762001 1.603 6.3564454e-39
-0.7443592 0.40631145 1.603 5.8039891e-39
-0.73585337 0.40762001 1.603 6.0780732e-39
-0.72394538 0.405788 1.603 5.8969106e-39
-0.71702451 0.40660223 1.603 6.1731331e-39
-0.70888227 0.40253115 1.603 6.4490081e-39
-0.86562002 0.41983336 1.603 8.6598886e-39
-0.85646009 0.41983336 1.603 8.2928899e-39
-0.84424675 0.41983336 1.603 7.9262836e-39
-0.83814007 0.41983336 1.603 7.9266437e-39
-0.82653743 0.41861206 1.603 7.8333663e-39
-0.81545818 0.41721621 1.603 7.6486051e-39
-0.80455339 0.41372672 1.603 7.9255816e-39
-0.79539341 0.41220003 1.603 7.7415322e-39
-0.78521562 0.41338745 1.6029999 7.2805499e-39
-0.77402008 0.41220006 1.603 6.9103422e-39
-0.76486003 0.41143668 1.603 6.5404779e-39
-0.75519121 0.41270894 1.603 6.0795026e-39
-0.74654007 0.41067335 1.603 5.9873041e-39
-0.73432672 0.41067335 1.603 6.3550231e-39
-0.71295339 0.41067335 1.603 6.9070954e-39
-0.86409342 0.4228867 1.603 8.292541e-39
-0.85493338 0.4228867 1.603 8.0181247e-39
-0.84424675 0.4228867 1.603 7.8348012e-39
-0.83386534 0.42594004 1.603 8.0181219e-39
-0.83673722 0.39756572 1.618 8.8464294e-39
-0.78126293 0.39910668 1.618 8.0159387e-39
-0.77509916 0.39910668 1.618 7.8326629e-39
-0.7658534 0.39725754 1.618 7.8312125e-39
-0.75551879 0.39699018 1.6156667 7.1865676e-39
-0.74347508 0.39790455 1.61625 6.9074668e-39
-0.73503435 0.39910668 1.618 6.7238e-39
-0.72887051 0.39910668 1.618 6.3557363e-39
-0.71602547 0.3959651 1.6156667 6.7248594e-39
-0.88912958 0.4083524 1.618 8.6642214e-39
-0.87476766 0.40790522 1.6148889 8.9368398e-39
-0.86738175 0.40790743 1.61625 8.5691363e-39
-0.85214674 0.40681148 1.618 8.0177534e-39
-0.8334552 0.40691608 1.615375 8.3843835e-39
-0.82369483 0.40645549 1.6166 7.9248347e-39
-0.81467676 0.40586478 1.6148182 7.8337335e-39
-0.80541849 0.40629238 1.6139168 8.2932697e-39
-0.79442251 0.40576389 1.6142668 8.017396e-39
-0.78382969 0.40566546 1.6129092 8.0166758e-39
-0.77481437 0.40454003 1.6110001 8.1074379e-39
-0.76560861 0.40351716 1.6110001 7.4617265e-39
-0.75563586 0.40377292 1.6110001 6.6334036e-39
-0.74369031 0.40264043 1.6110002 6.2642568e-39
-0.73492289 0.40413091 1.6110001 6.4472103e-39
-0.7261824 0.40338996 1.6140001 5.9883901e-39
-0.71754187 0.40483007 1.6121668 6.2649672e-39
-0.88413101 0.41207862 1.6145 8.4790987e-39
-0.87553328 0.41535574 1.6117001 8.5687734e-39
-0.8654139 0.41524509 1.6128668 8.4765805e-39
-0.85527796 0.41581684 1.6154547 8.1092357e-39
-0.8462984 0.41596526 1.6156667 8.1095819e-39
-0.83461905 0.41453877 1.6145 8.2014314e-39
-0.82391155 0.41528004 1.6110001 7.8322551e-39
-0.8154729 0.41349 1.6110001 7.7418769e-39
-0.78708863 0.41272289 1.6110001 7.4645838e-39
-0.71958005 0.41272289 1.6110001 7.0907594e-39
-0.86994004 0.42192858 1.6110001 8.75208e-39
-0.85306293 0.42192858 1.6110001 8.0181107e-39
-0.84539151 0.42192858 1.6110001 7.9262822e-39
-0.83786118 0.42315072 1.6127501 8.0181219e-39
-0.72937721 0.38869146 1.626 6.8167285e-39
-0.84087431 0.39488575 1.626 8.8461071e-39
-0.83468008 0.3979829 1.626 8.6606046e-39
-0.77521491 0.39674401 1.626 7.8315783e-39
-0.76344579 0.39488575 1.626 7.6464793e-39
-0.75415438 0.39643431 1.6260002 7.2769695e-39
-0.74424356 0.3961246 1.626 6.8167033e-39
-0.7355715 0.39540195 1.6260002 6.7245132e-39
-0.72628003 0.3944433 1.6260002 6.725958e-39
-0.87571722 0.40495145 1.626 8.7542338e-39
-0.86874861 0.40727431 1.626 8.4783854e-39
-0.84500384 0.40624189 1.6260002 8.3854779e-39
-0.83468014 0.40329227 1.6260002 8.3854485e-39
-0.82538861 0.40108001 1.6260002 7.9251906e-39
-0.81919432 0.40108001 1.626 8.0177534e-39
-0.8052572 0.40185431 1.626 7.9259011e-39
-0.79441714 0.40108001 1.6260002 8.3833031e-39
-0.78822291 0.40108001 1.626 8.1074295e-39
-0.72834486 0.40211242 1.6260002 6.1738534e-39
-0.86461914 0.41243622 1.6260002 8.2010796e-39
-0.85945719 0.41037145 1.626 8.0166884e-39
-0.8460362 0.41140383 1.6260002 8.1095973e-39
-0.77031434 0.38749146 1.6340001 8.294018e-39
-0.75475252 0.38749146 1.6340002 7.7401015e-39
-0.74334037 0.38645399 1.6340002 7.4624314e-39
-0.73607814 0.38593525 1.6340001 7.1858515e-39
-0.88547242 0.39994097 1.6340001 8.9382888e-39
-0.84314406 0.39496118 1.6340001 8.8457302e-39
-0.83567441 0.39682859 1.6340001 8.2946976e-39
-0.82633728 0.39994097 1.6340002 8.0177506e-39
-0.81233144 0.39994097 1.6340001 8.2946892e-39
-0.80455059 0.39620614 1.6340001 8.3865275e-39
-0.79560238 0.39721763 1.6339999 8.4769365e-39
-0.78587633 0.39682859 1.6340001 8.0163226e-39
-0.77431601 0.39282697 1.6340001 8.1989427e-39
-0.76346713 0.3918488 1.6340001 7.738682e-39
-0.7547524 0.39216003 1.6340001 7.2776912e-39
-0.74541533 0.39216003 1.6340001 6.633398e-39
-0.73670065 0.3943387 1.6340001 6.6330463e-39
-0.72985339 0.39060384 1.6340001 7.0003911e-39
-0.88547242 0.40616575 1.6340001 8.8464378e-39
-0.87535715 0.40383145 1.6340001 8.5694726e-39
-0.86742061 0.40803319 1.6340001 8.2025216e-39
-0.85746104 0.40927812 1.6340001 8.0184764e-39
-0.82011241 0.40305337 1.6340001 8.1099644e-39
-0.81388766 0.40305337 1.6340001 8.0177464e-39
-0.89169723 0.4123905 1.6340001 8.7553254e-39
-0.86679816 0.4123905 1.6340001 8.1096057e-39
-0.85590482 0.4123905 1.6340001 7.6500358e-39
-0.81193626 0.37848479 1.649 9.0290214e-39
-0.79466105 0.37848479 1.649 8.0177646e-39
-0.75330514 0.37743783 1.649 8.3858212e-39
-0.74773622 0.37934446 1.6436667 8.1096113e-39
-0.9030239 0.3847667 1.649 9.7662445e-39
-0.893601 0.3847667 1.649 9.6762069e-39
-0.88926578 0.38758859 1.641 9.3067139e-39
-0.84593368 0.38624808 1.6468182 8.6624165e-39
-0.83606768 0.38800859 1.645 8.4783686e-39
-0.82450008 0.38790768 1.649 8.6616907e-39
-0.81480104 0.38657725 1.6463333 8.5702097e-39
-0.80628204 0.38683623 1.6458 8.5701985e-39
-0.7953822 0.38639617 1.6466 8.202153e-39
-0.78598607 0.38550594 1.646091 8.3858212e-39
-0.77543527 0.38579544 1.6424547 8.3847492e-39
-0.76472521 0.38501984 1.6434001 8.2003622e-39
-0.75498146 0.38435334 1.6427777 7.9248431e-39
-0.74626434 0.38368145 1.641 7.8326531e-39
-0.90459436 0.39733049 1.649 8.8475112e-39
-0.89360106 0.39523655 1.649 9.3059797e-39
-0.88403773 0.39434385 1.6460912 9.214154e-39
-0.87740624 0.39650005 1.6455715 8.8457316e-39
-0.86454719 0.39654523 1.649 8.8460749e-39
-0.85606933 0.39453405 1.6467144 8.8457106e-39
-0.84394288 0.39227718 1.641 8.8457218e-39
-0.83430713 0.39366424 1.6442 8.2950605e-39
-0.82514924 0.39535749 1.6430001 8.2943445e-39
-0.81514162 0.39495638 1.641 8.4783798e-39
-0.80330861 0.39227718 1.641 8.4794476e-39
-0.79486918 0.39352748 1.641 8.9379118e-39
-0.78611726 0.39227718 1.6410002 8.2010881e-39
-0.90437001 0.40540728 1.649 8.9393551e-39
-0.89730549 0.40443841 1.6481112 8.8471623e-39
-0.88692147 0.40399861 1.641 8.8460875e-39
-0.87450737 0.40231624 1.6450001 8.2025132e-39
-0.86409533 0.40386602 1.643667 8.2950633e-39
-0.85540384 0.40424144 1.642 8.4787385e-39
-0.82206291 0.4016543 1.641 8.202146e-39
-0.90616482 0.41303527 1.649 8.9400866e-39
-0.89760101 0.41207337 1.6410002 8.7556813e-39
-0.85800862 0.41103145 1.641 7.9270151e-39
-0.8142972 0.37716478 1.6570001 8.8450071e-39
-0.80325055 0.3761127 1.6570001 8.4773078e-39
-0.79588604 0.37506065 1.6570001 8.3858212e-39
-0.76222003 0.37716478 1.6570001 8.4776483e-39
-0.75748575 0.37558669 1.6570001 8.7535177e-39
-0.90740484 0.38347718 1.6570001 9.9506358e-39
-0.86242908 0.38900051 1.6570001 8.8468036e-39
-0.85374957 0.38410839 1.6569999 8.7549765e-39
-0.84270293 0.38505527 1.6570001 8.6634717e-39
-0.83402336 0.38584432 1.6570001 8.2943305e-39
-0.82534379 0.38400322 1.6569999 8.2943473e-39
-0.81692737 0.38137302 1.6570001 8.7538695e-39
-0.80640674 0.38663337 1.6570001 8.5709342e-39
-0.79062575 0.38189906 1.6570001 8.4783784e-39
-0.78746957 0.38032097 1.6570001 8.478384e-39
-0.77405578 0.38268813 1.6570001 8.6606103e-39
-0.76537627 0.38032097 1.6570001 8.4776455e-39
-0.91308594 0.39673316 1.6569999 9.0308151e-39
-0.90424865 0.39557588 1.6569999 9.0304662e-39
-0.89635813 0.39768001 1.6570001 9.1219569e-39
-0.8821553 0.39294574 1.6570001 9.215233e-39
-0.87505388 0.39531288 1.6570001 8.8468036e-39
-0.86847848 0.39399779 1.6570001 8.7546009e-39
-0.83796865 0.39294574 1.6570001 8.3869044e-39
-0.91292816 0.40557051 1.6570001 8.7560401e-39
-0.80395716 0.36788577 1.6650002 8.93683e-39
-0.85470009 0.37740004 1.6650002 9.122673e-39
-0.8445515 0.3777172 1.6650002 9.0297501e-39
-0.83567148 0.37819287 1.6650001 8.6613207e-39
-0.82615721 0.3777172 1.6650002 8.4776497e-39
-0.81347144 0.37581432 1.6650002 8.7538975e-39
-0.80522579 0.37454575 1.6650002 8.6606145e-39
-0.79444289 0.37687147 1.6650002 8.5698467e-39
-0.78572148 0.37819287 1.6650001 8.6609606e-39
-0.77541435 0.37898573 1.6650002 8.6605794e-39
-0.76590008 0.37687147 1.6650002 8.5687762e-39
-0.92235726 0.38638577 1.6650002 1.0229368e-38
-0.91495723 0.38691431 1.6650001 1.0042104e-38
