# .PCD v0.7 - Point Cloud Data file format
VERSION 0.7
FIELDS x y z rgb
SIZE 4 4 4 4
TYPE F F F F
COUNT 1 1 1 1
WIDTH 597
HEIGHT 1
VIEWPOINT 0 0 0 1 0 0 0
POINTS 597
DATA ascii
-0.39785051 -0.35986954 0.99700004 8.7553576e-39
-0.3922354 -0.38314536 1.005125 2.3967375e-39
-0.38818908 -0.38371608 1.0068334 2.4892666e-39
-0.39228049 -0.37535554 1.0057223 2.8544702e-39
-0.38825145 -0.37453717 1.008 2.2126993e-39
-0.39506727 -0.36518663 1.0072308 3.3176105e-39
-0.39577442 -0.35691726 1.0065335 2.3946005e-39
-0.39552003 -0.34848002 1.008 2.6675888e-39
-0.38742858 -0.39227146 1.0170001 2.764085e-39
-0.38648641 -0.38541716 1.012 2.8551849e-39
-0.40262932 -0.37552789 1.0162501 7.6475331e-39
-0.39844674 -0.37336481 1.013 2.7691157e-39
-0.38674077 -0.3738879 1.0122499 2.4878555e-39
-0.39227074 -0.36138928 1.0132501 2.3034628e-39
-0.38691893 -0.36472782 1.0131428 2.487501e-39
-0.40077147 -0.35345146 1.0140001 2.4825011e-39
-0.39470023 -0.35589612 1.0150715 2.2109127e-39
-0.38710576 -0.35869431 1.0170001 2.7644256e-39
-0.38839716 -0.33803147 1.0170001 2.1187058e-39
-0.38651812 -0.3923696 1.024 3.221808e-39
-0.38768202 -0.38475859 1.0233001 2.6708174e-39
-0.38618654 -0.37561676 1.0221429 2.7640724e-39
-0.38428196 -0.36350352 1.0226667 2.9481078e-39
-0.39276192 -0.35615817 1.0233333 2.2127035e-39
-0.38733682 -0.3556343 1.0241251 2.579698e-39
-0.3916629 -0.34976861 1.023 2.0279535e-39
-0.38692719 -0.34449992 1.0231364 2.4864276e-39
-0.38623896 -0.33747393 1.024125 2.7615585e-39
-0.38206288 -0.30584574 1.026 1.1059776e-39
-0.38418686 -0.39487433 1.0352501 1.9357439e-39
-0.37811071 -0.39655179 1.0374999 1.8442923e-39
-0.38444409 -0.38510355 1.0326252 2.8555604e-39
-0.37942713 -0.38535574 1.0375 3.6871077e-39
-0.38460338 -0.37643766 1.034857 2.8566282e-39
-0.37942716 -0.37942716 1.0375 2.4925344e-39
-0.383681 -0.36384627 1.0346 2.3960102e-39
-0.39650097 -0.3556934 1.0300001 1.9368481e-39
-0.38334396 -0.3541497 1.0317143 2.6711607e-39
-0.37942713 -0.35472479 1.0375001 2.7626403e-39
-0.38247791 -0.34531784 1.033 2.4878443e-39
-0.37951508 -0.34237412 1.0372001 2.4881932e-39
-0.38311115 -0.33579618 1.0350001 2.303446e-39
-0.37942716 -0.33792859 1.0375 2.3038131e-39
-0.38246268 -0.31336522 1.0338182 1.4751483e-39
-0.37986669 -0.31376001 1.036 1.7510163e-39
-0.38235259 -0.30907604 1.0342001 1.4747784e-39
-0.37629092 -0.39446059 1.0432857 2.5800553e-39
-0.37619576 -0.38465813 1.0450001 3.2257835e-39
-0.3826313 -0.37344995 1.0421875 2.6726013e-39
-0.37681997 -0.37516057 1.0455 2.3034572e-39
-0.38107431 -0.3654443 1.0419999 2.4885659e-39
-0.37741357 -0.36504418 1.0452144 2.5786106e-39
-0.38008192 -0.3503105 1.0420001 2.6718964e-39
-0.37647143 -0.35462004 1.043 2.2109113e-39
-0.38008192 -0.34733337 1.0420001 2.5804042e-39
-0.37712541 -0.34490961 1.0448126 2.119782e-39
-0.38215017 -0.33291209 1.0445001 2.486422e-39
-0.37918574 -0.33838099 1.0450001 2.3960214e-39
-0.38438222 -0.32471406 1.04425 2.0275766e-39
-0.38135764 -0.31497893 1.0455002 2.117987e-39
-0.37918574 -0.31449527 1.0450001 2.4853359e-39
-0.37619507 -0.39389148 1.0556 2.6718586e-39
-0.37520251 -0.38525811 1.0562 1.8424875e-39
-0.37576532 -0.37577224 1.0544001 2.0257815e-39
-0.37558499 -0.36524013 1.0560716 1.8421414e-39
-0.37407008 -0.35538933 1.0553532 1.9350362e-39
-0.36979622 -0.3587124 1.0580001 2.1179996e-39
-0.37642941 -0.34609032 1.0555457 1.9357453e-39
-0.38200936 -0.33217201 1.0550002 2.5786134e-39
-0.37979716 -0.33659241 1.0550001 2.6700929e-39
-0.382579 -0.32534432 1.0543573 2.21127e-39
-0.37987241 -0.32344574 1.0580001 2.2098393e-39
-0.38200822 -0.31327909 1.0550001 2.2094861e-39
-0.37979719 -0.31650004 1.0550001 2.0265354e-39
-0.35396573 -0.43025145 1.0680001 1.5651705e-39
-0.34888002 -0.43025145 1.0680001 1.5662831e-39
-0.37514573 -0.42290387 1.067 2.1179954e-39
-0.36533028 -0.42300761 1.064913 1.1967439e-39
-0.35624275 -0.42440498 1.0674288 1.2907374e-39
-0.34888002 -0.42516574 1.0680001 1.6595283e-39
-0.37387633 -0.41563532 1.0677333 1.474414e-39
-0.36550459 -0.41545251 1.0674785 1.4744098e-39
-0.35837337 -0.41567242 1.0680001 1.5655236e-39
-0.38047621 -0.40685844 1.0653334 1.8396134e-39
-0.37747154 -0.40464106 1.0672728 1.3822142e-39
-0.36820573 -0.40990859 1.0680001 1.7495534e-39
-0.37607709 -0.39577577 1.0661 1.5658866e-39
-0.3759467 -0.38506669 1.064 1.3825897e-39
-0.37639537 -0.37563443 1.063125 2.0250753e-39
-0.37387621 -0.36478192 1.0610001 1.841777e-39
-0.37236005 -0.35384986 1.0628572 2.117631e-39
-0.37562013 -0.34490177 1.0650001 2.119789e-39
-0.38037983 -0.33260649 1.0628 2.9455952e-39
-0.37800616 -0.33550319 1.0661429 2.4867625e-39
-0.38035607 -0.32544133 1.062875 2.4864318e-39
-0.3779484 -0.32464975 1.0671111 2.6700929e-39
-0.38146028 -0.31449857 1.06525 2.3938718e-39
-0.37870327 -0.31731203 1.0672001 2.76229e-39
-0.38240451 -0.3055867 1.066 2.0272403e-39
-0.37939432 -0.30514288 1.0680001 2.3956528e-39
-0.36210287 -0.26140574 1.0680001 1.4769434e-39
-0.35803431 -0.26140574 1.0680001 1.3800562e-39
-0.3614229 -0.2578724 1.066 6.4610229e-40
-0.35643709 -0.2552003 1.0658667 1.5669558e-39
-0.35623273 -0.24932921 1.0656668 2.0268591e-39
-0.34777147 -0.43062288 1.074 1.5673341e-39
-0.38453379 -0.42318577 1.07525 4.6962472e-39
-0.35423145 -0.42475718 1.0710001 1.3829204e-39
-0.34649584 -0.42440793 1.0735499 1.7502736e-39
-0.3917543 -0.41834861 1.074 1.7517184e-39
-0.38426593 -0.41549918 1.0722352 1.9335901e-39
-0.37556401 -0.41187605 1.0710001 1.6573563e-39
-0.36270973 -0.41088119 1.0716001 1.5655334e-39
-0.35432321 -0.41420382 1.0734997 1.7499051e-39
-0.34737459 -0.41743988 1.0755335 1.8417546e-39
-0.37284112 -0.40536609 1.0711764 1.7488373e-39
-0.36458871 -0.40544915 1.0744135 1.5662369e-39
-0.3573994 -0.40836006 1.0773335 1.9342935e-39
-0.37399873 -0.39564979 1.0753334 1.4737036e-39
-0.3672049 -0.39864868 1.0766666 1.5662579e-39
-0.37689465 -0.38441905 1.0773335 1.4733392e-39
-0.37842938 -0.376376 1.0780001 2.0247347e-39
-0.37531072 -0.36558217 1.07525 1.8417686e-39
-0.37308216 -0.35570788 1.0732499 1.7502848e-39
-0.37215105 -0.34467429 1.0721819 2.1179898e-39
-0.36925146 -0.34265718 1.074 1.932874e-39
-0.37308481 -0.33524367 1.0727999 2.3020335e-39
-0.3689124 -0.33202291 1.076 1.9357523e-39
-0.37401187 -0.32462651 1.0749998 2.4875108e-39
-0.3689124 -0.32894859 1.076 1.8442769e-39
-0.38148004 -0.31212002 1.0710001 2.578249e-39
-0.37719181 -0.31534299 1.0752668 3.4080097e-39
-0.3820143 -0.30642429 1.0725 2.3041677e-39
-0.37842032 -0.30580184 1.0739001 2.3956444e-39
-0.37781334 -0.28182003 1.0780001 4.5175943e-39
-0.37268004 -0.27412 1.0780001 5.0697101e-39
-0.3647171 -0.27328163 1.0776365 4.1473908e-39
-0.35728002 -0.27104002 1.0780001 2.1219582e-39
-0.37095147 -0.26671904 1.0730001 4.2388774e-39
-0.36468521 -0.26661965 1.0726001 3.410888e-39
-0.35517079 -0.26484901 1.0731876 1.4758461e-39
-0.35348818 -0.25574455 1.0722859 1.7520673e-39
-0.31456098 -0.44300798 1.0876669 2.4889177e-39
-0.30589873 -0.44279572 1.0874548 2.4878387e-39
-0.29401907 -0.4427124 1.0880002 2.3967276e-39
-0.28613663 -0.44363761 1.0880002 2.6715251e-39
-0.39530671 -0.43157336 1.0880001 2.3030985e-39
-0.38956669 -0.43090004 1.085 4.6248483e-39
-0.34510225 -0.43267494 1.0860001 1.5676704e-39
-0.33399877 -0.43001908 1.0880001 1.5680362e-39
-0.32087371 -0.43070984 1.0880001 1.8424819e-39
-0.31655622 -0.43623623 1.0880001 2.3942095e-39
-0.30843937 -0.43761784 1.0880001 2.9474001e-39
-0.29324192 -0.4383086 1.0880001 2.2123406e-39
-0.39287069 -0.42586985 1.0827146 2.0257983e-39
-0.38710099 -0.42828193 1.0810001 5.6278837e-39
-0.34227574 -0.42475575 1.0825001 1.6595269e-39
-0.33577463 -0.42425483 1.0844445 1.6598731e-39
-0.32520694 -0.42427164 1.0857499 2.2098225e-39
-0.31651512 -0.42416343 1.0868002 2.1190646e-39
-0.35209715 -0.41078001 1.0810001 1.9350166e-39
-0.3440913 -0.41358232 1.0817273 1.8428378e-39
-0.33545402 -0.41457111 1.0842412 2.0261431e-39
-0.32557616 -0.41574827 1.085565 2.1190632e-39
-0.3168456 -0.41797787 1.0867144 2.2108944e-39
-0.36204922 -0.40117115 1.0810001 1.7502834e-39
-0.35488412 -0.40439919 1.0811739 1.7509883e-39
-0.34531978 -0.40470213 1.0839198 2.1176198e-39
-0.33723477 -0.40586466 1.0871431 2.1183345e-39
-0.37394595 -0.39179108 1.0810002 1.4740525e-39
-0.36499795 -0.39393207 1.0816956 1.7502862e-39
-0.35468584 -0.39488226 1.0831722 2.2098323e-39
-0.34503835 -0.3956812 1.0860369 2.027585e-39
-0.33779812 -0.39893335 1.0880001 1.8442867e-39
-0.37289357 -0.38445011 1.0834002 1.7492114e-39
-0.36568701 -0.3863683 1.0858693 1.7510149e-39
-0.35619283 -0.38659608 1.0870526 2.2112448e-39
-0.34919623 -0.38857144 1.0880001 2.0272361e-39
-0.37461933 -0.37539744 1.084125 1.5651845e-39
-0.36992002 -0.3761372 1.0880001 2.0261543e-39
-0.35955811 -0.37820956 1.0880001 2.3027327e-39
-0.37524381 -0.36580795 1.0837144 1.6577221e-39
-0.37613717 -0.35593146 1.0880001 1.750289e-39
-0.3709667 -0.34203336 1.085 2.0272389e-39
-0.36884972 -0.33550811 1.0828335 1.6598871e-39
-0.372114 -0.32057688 1.0823334 4.3292528e-39
-0.36864537 -0.32525834 1.0846668 2.212342e-39
-0.37303087 -0.31458321 1.0829999 3.6849693e-39
-0.36930156 -0.31420821 1.0874001 3.2254233e-39
-0.37518534 -0.3051905 1.0843701 3.3172546e-39
-0.36811122 -0.30494785 1.0872502 3.5030738e-39
-0.37524331 -0.29512906 1.0836664 4.1470195e-39
-0.36940193 -0.29790479 1.0880001 4.2395668e-39
-0.37400514 -0.28499949 1.0827894 4.4243309e-39
-0.3677544 -0.28311345 1.0865 4.6998401e-39
-0.37577623 -0.27900097 1.0810002 4.8849461e-39
-0.36489591 -0.27762669 1.0823334 4.5158202e-39
-0.35728478 -0.27442122 1.0842501 2.122317e-39
-0.34712383 -0.27044573 1.0880001 1.5673047e-39
-0.35147458 -0.26486126 1.0827144 1.5676746e-39
-0.34795418 -0.26467338 1.0870001 1.6584493e-39
-0.35149813 -0.25769842 1.0823334 1.6588039e-39
-0.34871477 -0.25868908 1.0865 1.1067091e-39
-0.35144287 -0.44112861 1.095 9.241157e-40
-0.34535077 -0.44483683 1.0969999 1.7506324e-39
-0.33484977 -0.44437811 1.0953001 1.9354062e-39
-0.32490778 -0.44365847 1.0924287 2.3949424e-39
-0.31535098 -0.44159526 1.0910001 2.4874869e-39
-0.3028824 -0.44211477 1.0910001 2.2126895e-39
-0.29716766 -0.44367337 1.0910001 2.4871296e-39
-0.28469905 -0.44263434 1.0910001 2.6715181e-39
-0.27403027 -0.44357729 1.092476 2.7626389e-39
-0.26574069 -0.44454205 1.0967647 2.6704321e-39
-0.34463444 -0.43678755 1.0937694 1.7509799e-39
-0.33524087 -0.43590465 1.0934001 1.9343118e-39
-0.32535487 -0.43530828 1.0914444 2.3020069e-39
-0.31451973 -0.43473753 1.0909998 2.4874897e-39
-0.30459732 -0.43508619 1.093222 2.5793224e-39
-0.29542986 -0.43510497 1.0930867 2.5789637e-39
-0.28535885 -0.43560365 1.0941513 2.6711649e-39
-0.27575833 -0.43668693 1.0960832 2.854459e-39
-0.26770288 -0.43815431 1.098 2.6707908e-39
-0.31171435 -0.42497054 1.091 2.3045306e-39
-0.30545682 -0.4243241 1.0940768 2.7629906e-39
-0.29465348 -0.42432934 1.0935184 2.5793084e-39
-0.28504044 -0.42495295 1.0963197 2.5803972e-39
-0.27816004 -0.42874289 1.098 3.1285446e-39
-0.3335343 -0.41042385 1.0910001 2.2105217e-39
-0.32391688 -0.41244185 1.0925386 2.4864192e-39
-0.31444991 -0.41514692 1.0938095 2.4867723e-39
-0.3049354 -0.41497838 1.097172 2.945598e-39
-0.29480356 -0.41500911 1.0970526 3.0381454e-39
-0.28753608 -0.41707394 1.0968751 2.6725929e-39
-0.33318737 -0.40399584 1.0914705 2.2112392e-39
-0.32486957 -0.40573531 1.0945712 2.3959934e-39
-0.31435877 -0.40521917 1.096607 2.6715237e-39
-0.30758944 -0.40558779 1.098 2.8552059e-39
-0.29384574 -0.4088743 1.098 3.1303368e-39
-0.34317774 -0.39146119 1.0926001 2.3956557e-39
-0.33543357 -0.3943764 1.0948234 2.3030915e-39
-0.32539898 -0.39576533 1.0969198 2.5793224e-39
-0.31523308 -0.39676735 1.0975714 2.6715279e-39
-0.3657448 -0.38236955 1.0910001 2.3016664e-39
-0.35384262 -0.38321334 1.0932631 2.02652e-39
-0.34561065 -0.38604984 1.0961109 2.3030999e-39
-0.33628944 -0.38525346 1.0979998 2.2116175e-39
-0.37173718 -0.3713921 1.0923334 1.8417798e-39
-0.36519396 -0.37482807 1.0929258 2.0268745e-39
-0.3552168 -0.37505025 1.0959332 2.2109113e-39
-0.34543431 -0.37889716 1.098 2.4878373e-39
-0.33672002 -0.3795943 1.098 2.6725873e-39
-0.37326297 -0.36491832 1.0947726 1.4744252e-39
-0.36501339 -0.36437538 1.0970867 2.1183415e-39
-0.35739934 -0.36610454 1.09675 2.1190702e-39
-0.3742891 -0.35536531 1.0968823 1.4740567e-39
-0.36634859 -0.35798287 1.098 1.7510037e-39
-0.35868001 -0.35868001 1.098 9.2088571e-40
-0.37347278 -0.34675089 1.0960001 1.6584451e-39
-0.37072146 -0.32163858 1.0965 3.03923e-39
-0.37122861 -0.31685144 1.098 3.2275715e-39
-0.36913717 -0.31266859 1.098 2.9491854e-39
-0.36683908 -0.30398628 1.0947144 3.8704088e-39
-0.37094003 -0.29301143 1.0910001 4.6087193e-39
-0.36802107 -0.29504359 1.0946923 4.332117e-39
-0.36535355 -0.2862986 1.0942 4.2410046e-39
-0.3590486 -0.28243333 1.0970001 3.4126704e-39
-0.35560611 -0.27646917 1.0933751 1.6598955e-39
-0.34808096 -0.27326953 1.0910001 1.6573521e-39
-0.26133144 -0.45024574 1.102 2.3956388e-39
-0.25408167 -0.45146149 1.1057144 2.6704447e-39
-0.24714859 -0.45204955 1.1090001 2.5804014e-39
-0.26253089 -0.4439486 1.1020001 2.39492e-39
-0.25472662 -0.44488451 1.1056771 2.4878429e-39
-0.24750066 -0.44817686 1.1090001 2.3059711e-39
-0.27296799 -0.43281227 1.102375 2.5789581e-39
-0.26537412 -0.43485576 1.1038568 2.3960018e-39
-0.25603998 -0.43570185 1.1074998 2.4878485e-39
-0.28064269 -0.42337796 1.1020001 2.6718712e-39
-0.27426532 -0.42524314 1.1040831 2.5793196e-39
-0.26530325 -0.42565107 1.1083043 2.8544702e-39
-0.25735843 -0.42846131 1.1090002 2.3041593e-39
-0.30331242 -0.41036385 1.102 2.3953053e-39
-0.29386669 -0.41106352 1.1020001 3.0384971e-39
-0.2845872 -0.41487592 1.1039598 2.8562611e-39
-0.27512985 -0.41533107 1.1068569 2.7640668e-39
-0.26862448 -0.41649115 1.1090002 3.1306927e-39
-0.30394131 -0.40383625 1.1035713 2.9473917e-39
-0.29507408 -0.40450451 1.1055859 2.8555548e-39
-0.28576279 -0.4052574 1.1078146 2.9484679e-39
-0.27649897 -0.40698019 1.1087145 2.9481036e-39
-0.32272819 -0.39205956 1.103 2.5789609e-39
-0.31437725 -0.39317772 1.1048332 2.9473889e-39
-0.30703044 -0.39634016 1.1061666 2.8555562e-39
-0.29407367 -0.39531702 1.1090002 2.9470414e-39
-0.28763592 -0.39747971 1.1090001 3.0402866e-39
-0.34109527 -0.38097715 1.102 3.1313976e-39
-0.33215937 -0.38401955 1.1023 2.029743e-39
-0.32491082 -0.38529521 1.1063101 2.3960172e-39
-0.31592074 -0.38678655 1.1085 2.5804141e-39
-0.30946383 -0.3897343 1.1090001 2.7637291e-39
-0.29573336 -0.3897343 1.1090001 3.1317872e-39
-0.35182837 -0.37125885 1.1027501 2.3045474e-39
-0.34499189 -0.37458929 1.1030868 2.3041761e-39
-0.33504269 -0.37508056 1.1062939 2.671179e-39
-0.32727233 -0.37792793 1.1081111 2.580407e-39
-0.35388109 -0.36413842 1.1047915 2.119073e-39
-0.34545299 -0.36520341 1.1082854 2.3034684e-39
-0.33739421 -0.36626339 1.1090001 2.4878429e-39
-0.37167051 -0.35246211 1.1028572 1.4754776e-39
-0.36478388 -0.35400304 1.1040831 1.9346775e-39
-0.35643241 -0.35583225 1.1068095 1.8431895e-39
-0.37248304 -0.34526747 1.1068183 1.3825645e-39
-0.36517724 -0.34732673 1.1074617 2.1183471e-39
-0.35761556 -0.34917876 1.1076667 2.3949396e-39
-0.37185177 -0.33648437 1.1067779 1.3818625e-39
-0.37187365 -0.32522032 1.106143 2.5778903e-39
-0.37283525 -0.31791335 1.1090001 2.9509818e-39
-0.36772418 -0.30450767 1.1063335 3.963703e-39
-0.36467922 -0.29427433 1.1061668 4.3324519e-39
-0.35804859 -0.29045239 1.1090001 4.5150705e-39
-0.36171269 -0.2881813 1.103 4.5154096e-39
-0.35648507 -0.28385758 1.10525 2.3034558e-39
-0.35368955 -0.27812383 1.102 1.4729861e-39
-0.24302891 -0.45316163 1.1143334 2.5818364e-39
-0.24714832 -0.44575772 1.1146364 2.398164e-39
-0.25179908 -0.43357334 1.1140001 2.5804042e-39
-0.24907216 -0.43574142 1.1152501 2.8566086e-39
-0.26232287 -0.42235634 1.1138572 2.6711804e-39
-0.25621504 -0.4264341 1.1147501 2.5803874e-39
-0.27030003 -0.41234004 1.113 2.4885603e-39
-0.26454559 -0.41524115 1.1142858 2.4882016e-39
-0.25827432 -0.41876572 1.1160001 2.579307e-39
-0.29998001 -0.40174001 1.113 2.8559121e-39
-0.28090003 -0.40280002 1.113 2.8573204e-39
-0.27447969 -0.4036366 1.1146666 2.7647787e-39
-0.26748574 -0.40778285 1.1160002 2.2130524e-39
-0.30379298 -0.39382991 1.1132308 2.9470246e-39
-0.29549691 -0.39345065 1.1135454 2.8555576e-39
-0.28529391 -0.39532927 1.1140002 3.1317717e-39
-0.2763429 -0.39857146 1.1160001 2.5811119e-39
-0.32224002 -0.38054001 1.113 2.3059711e-39
-0.31357533 -0.3835718 1.1136001 2.8551989e-39
-0.30514783 -0.38553637 1.1146364 2.6715223e-39
-0.29527083 -0.38564384 1.1140587 2.5807658e-39
-0.32488576 -0.37451431 1.114 2.5800385e-39
-0.31694239 -0.37714481 1.1155002 2.6718922e-39
-0.29866287 -0.37944004 1.1160001 2.9495441e-39
-0.34132004 -0.36146003 1.113 2.3049132e-39
-0.3337357 -0.36465925 1.1141429 2.4878471e-39
-0.32793573 -0.36723357 1.1152501 3.0384985e-39
-0.35243866 -0.35392261 1.1133 2.3963829e-39
-0.34540272 -0.35621503 1.1142858 2.3041789e-39
-0.33806431 -0.35770005 1.1145 2.2126979e-39
-0.37206003 -0.34344003 1.113 1.5658712e-39
-0.36476904 -0.34312615 1.1140498 2.2101854e-39
-0.35551244 -0.34583873 1.1146668 2.3027355e-39
-0.37206003 -0.33284003 1.113 1.6563124e-39
-0.36883536 -0.33543792 1.1149092 1.7485038e-39
-0.37246004 -0.3244966 1.1142 2.5793182e-39
-0.36965787 -0.32776076 1.11375 2.1172597e-39
-0.37306288 -0.31566858 1.1160001 3.3158057e-39
-0.36744195 -0.30236953 1.1140001 3.9647806e-39
-0.36355144 -0.29706669 1.1140001 4.055886e-39
-0.35737148 -0.29239544 1.1148001 2.9499252e-39
-0.35463026 -0.287067 1.1134286 1.5655405e-39
-0.23398668 -0.46046004 1.1270001 3.2239632e-39
-0.24138811 -0.45073479 1.1215 2.7665892e-39
-0.2372143 -0.4548279 1.1231112 3.0413628e-39
-0.24354149 -0.44494924 1.1223687 2.7644396e-39
-0.23881668 -0.44811669 1.1270001 3.0396083e-39
-0.24580961 -0.43516287 1.1232778 2.9480797e-39
-0.25327146 -0.42467976 1.1202 3.0395789e-39
-0.24784638 -0.42547038 1.1245 2.7644298e-39
-0.26218671 -0.41237336 1.12 2.6718852e-39
-0.25468314 -0.41502395 1.1218075 2.8548303e-39
-0.24847963 -0.41597161 1.1252857 2.8569799e-39
-0.27200001 -0.40106669 1.12 2.947721e-39
-0.26527455 -0.4040269 1.120682 2.7647759e-39
-0.25487232 -0.40502754 1.1241562 2.580763e-39
-0.24794002 -0.40894002 1.1270001 2.5822315e-39
-0.28266668 -0.39336297 1.12 2.7647829e-39
-0.27464575 -0.39390254 1.1213753 2.8562709e-39
-0.26578325 -0.39615759 1.12485 2.9477392e-39
-0.25713909 -0.39856952 1.125 2.7637165e-39
-0.31040001 -0.38080004 1.12 2.7629892e-39
-0.30435559 -0.38151118 1.12 2.5804028e-39
-0.29333335 -0.38293335 1.12 3.1324864e-39
-0.28462225 -0.38507563 1.1211854 2.7651556e-39
-0.27583039 -0.38571244 1.1250001 2.9484665e-39
-0.26940668 -0.38962004 1.1270001 3.1331899e-39
-0.32277337 -0.3709867 1.12 2.1230092e-39
-0.31433678 -0.37412184 1.1209998 2.8562667e-39
-0.30533719 -0.37491539 1.1232171 2.8559107e-39
-0.29518521 -0.37488329 1.1226923 2.8573429e-39
-0.28520772 -0.37561077 1.1245171 2.948828e-39
-0.27713472 -0.37716937 1.1270001 2.9488336e-39
-0.33202764 -0.36120987 1.1210001 2.4882086e-39
-0.32467696 -0.36375117 1.1210502 2.5796714e-39
-0.31520766 -0.36492604 1.1243929 2.8544842e-39
-0.3049753 -0.36561009 1.1254761 2.7633662e-39
-0.29618582 -0.365881 1.1258888 2.8573387e-39
-0.28872669 -0.36815336 1.1270001 2.6736705e-39
-0.35093334 -0.35093334 1.12 2.6708132e-39
-0.34381381 -0.35274124 1.1208183 2.2123504e-39
-0.3344484 -0.35544628 1.1219566 2.5800497e-39
-0.32461447 -0.3546122 1.1249127 2.6718838e-39
-0.31585452 -0.3565143 1.1267779 2.8551877e-39
-0.30504134 -0.35870799 1.1270001 3.2225367e-39
-0.36373335 -0.34026667 1.1200001 2.5768309e-39
-0.35394001 -0.34343219 1.1206923 2.3030985e-39
-0.34480047 -0.34515905 1.1241333 2.579684e-39
-0.33474252 -0.34537131 1.125154 2.7640808e-39
-0.3256864 -0.34631023 1.1265556 2.7647983e-39
-0.31878003 -0.34776002 1.1270001 3.1314312e-39
-0.36388931 -0.33429092 1.1214286 1.7499499e-39
-0.35510927 -0.3347494 1.1222856 2.3041873e-39
-0.34535173 -0.33504269 1.1244814 2.8551961e-39
-0.33810002 -0.33702669 1.1270001 2.3077914e-39
-0.3719812 -0.32341573 1.12075 2.5807504e-39
-0.36496007 -0.32536024 1.1237917 2.026513e-39
-0.35584795 -0.32628265 1.1265557 7.37134e-39
-0.34695503 -0.32763502 1.127 1.1150896e-38
-0.37153777 -0.31544167 1.1227692 3.5934758e-39
-0.3669458 -0.31604391 1.1259334 3.5009186e-39
-0.37013337 -0.3082667 1.12 4.0555792e-39
-0.36514968 -0.30478284 1.1239334 3.9633303e-39
-0.36373335 -0.29973334 1.12 3.6885581e-39
-0.35812762 -0.29773098 1.1225001 3.4105447e-39
-0.23083216 -0.46220502 1.1352501 3.224689e-39
-0.23365037 -0.45528013 1.1340668 3.3161742e-39
-0.24074146 -0.44216716 1.131 3.0388741e-39
-0.23562336 -0.44492045 1.1346319 2.9484777e-39
-0.24200132 -0.43509433 1.132091 2.9488112e-39
-0.23582086 -0.43470085 1.1360955 3.1332137e-39
-0.24329537 -0.42464602 1.132737 2.58077e-39
-0.23732676 -0.42492297 1.137077 3.0406719e-39
-0.24505278 -0.41525576 1.1356318 2.9484651e-39
-0.23879938 -0.41871178 1.138 3.133941e-39
-0.2509743 -0.40177432 1.131 2.6743711e-39
-0.24788645 -0.40599114 1.1358461 2.5821867e-39
-0.26334858 -0.39331859 1.1325001 3.0395733e-39
-0.2543768 -0.39532757 1.1342802 2.6726027e-39
-0.2488362 -0.39814097 1.136 2.7655186e-39
-0.27215815 -0.38364241 1.1310003 2.8573541e-39
-0.2642886 -0.38511145 1.1326803 3.0406397e-39
-0.25467879 -0.38526949 1.1363337 2.9488112e-39
-0.28257602 -0.37181032 1.1316001 3.0395999e-39
-0.27468687 -0.37396619 1.1330911 3.2236142e-39
-0.26505598 -0.37540266 1.1359603 2.8566366e-39
-0.25766179 -0.37712958 1.1374286 2.8573387e-39
-0.30267715 -0.36084288 1.131 3.3165175e-39
-0.29312456 -0.3633979 1.1322501 3.041011e-39
-0.28470045 -0.36506805 1.1342403 3.2239716e-39
-0.27605084 -0.36588341 1.1371582 3.2243205e-39
-0.26607525 -0.36957908 1.138 2.6736775e-39
-0.31355709 -0.35270038 1.1320003 3.0392314e-39
-0.30545712 -0.35423732 1.1333203 2.948105e-39
-0.29509676 -0.35493299 1.1350005 3.1332151e-39
-0.28721896 -0.35611519 1.1374669 3.133571e-39
-0.33068287 -0.3414543 1.131 3.5016263e-39
-0.32482898 -0.34226856 1.1342143 3.6842281e-39
-0.31588781 -0.3457703 1.1360955 3.0413726e-39
-0.30321446 -0.34551862 1.1372943 2.8562723e-39
-0.29664156 -0.34582895 1.1376002 3.4054902e-39
-0.3416793 -0.33144075 1.1317501 9.0128308e-39
-0.33472922 -0.33488113 1.1348218 8.105647e-39
-0.32596871 -0.33664003 1.1365715 5.2490426e-39
-0.31900132 -0.33850989 1.138 5.0520299e-39
-0.30207324 -0.33768409 1.138 1.6768012e-38
-0.29804763 -0.33814859 1.138 1.8713433e-38
-0.36180001 -0.32076001 1.1340001 5.9902146e-39
-0.35400596 -0.32249254 1.1319231 1.2075848e-38
-0.34399122 -0.32498425 1.1340503 1.6689545e-38
-0.3375138 -0.32729936 1.1374286 1.982239e-38
-0.36310762 -0.31531313 1.1345296 5.0697031e-39
-0.35468015 -0.31500074 1.1352612 1.0142958e-38
-0.3462522 -0.31608805 1.1359413 9.2184784e-39
-0.36187798 -0.30698791 1.1332858 5.2583683e-39
-0.35919052 -0.30401528 1.136 4.6101332e-39
-0.23029144 -0.46494859 1.146 3.2246876e-39
-0.22810858 -0.46822289 1.146 3.5945394e-39
-0.23114268 -0.45441973 1.1442223 3.4090803e-39
-0.2281086 -0.45512578 1.146 3.4105124e-39
-0.23105335 -0.44504362 1.1437778 3.4094362e-39
-0.22767201 -0.44595775 1.146 3.1353605e-39
-0.23107512 -0.43616852 1.1437144 3.5019766e-39
-0.23402934 -0.42556497 1.1440001 3.3176148e-39
-0.24177825 -0.41365308 1.1442858 3.1339396e-39
-0.23841944 -0.41685066 1.1452001 3.4094404e-39
-0.24557778 -0.40461737 1.1437778 2.9477574e-39
-0.24750128 -0.39476889 1.1440001 2.8573457e-39
-0.25232762 -0.38175431 1.1420001 2.4914176e-39
-0.2485186 -0.38613144 1.1445 3.0424334e-39
-0.26429144 -0.37087813 1.1420001 2.6729558e-39
-0.25476763 -0.37444946 1.1424212 2.8580505e-39
-0.24993716 -0.37545145 1.146 3.1342745e-39
-0.28169334 -0.36000192 1.1420001 3.3168987e-39
-0.27375209 -0.363067 1.1436667 3.3168819e-39
-0.26536533 -0.36650604 1.1451579 3.2254205e-39
-0.25757718 -0.36890286 1.146 3.1332137e-39
-0.29256955 -0.35130098 1.1420001 3.8704326e-39
-0.28380743 -0.35356551 1.1445 3.5927359e-39
-0.27746364 -0.35664728 1.1452 3.3176204e-39
-0.31401122 -0.34197852 1.1420002 3.3103981e-39
-0.30903924 -0.34322155 1.1420002 3.4973187e-39
-0.29340407 -0.34454715 1.1441334 9.9527756e-39
-0.28897622 -0.34676859 1.1450001 8.0098781e-39
-0.32420936 -0.33330584 1.1420002 2.0190396e-38
-0.31486931 -0.33467847 1.1440001 1.7055414e-38
-0.30575311 -0.33378029 1.1430001 1.4187357e-38
-0.29615727 -0.33467662 1.1446668 1.0037117e-38
-0.34151238 -0.32193524 1.1420001 1.0056557e-38
-0.33449617 -0.32463834 1.1432632 1.6598094e-38
-0.32605577 -0.32733658 1.1441177 1.326473e-38
-0.31896383 -0.32823145 1.145 8.7410588e-39
-0.30324128 -0.32832766 1.1453333 7.7181754e-39
-0.29644081 -0.32828918 1.1452 9.020402e-39
-0.35347623 -0.31214669 1.1420001 4.0656559e-39
-0.34151238 -0.31758478 1.1420001 1.0310475e-38
-0.33444491 -0.31916493 1.1460001 7.0015682e-39
-0.32852003 -0.3197886 1.146 9.1360848e-39
-0.36072701 -0.30924639 1.1420001 6.1781386e-39
-0.35521641 -0.30953643 1.1420001 4.3285241e-39
-0.22760963 -0.465628 1.1503751 3.5938205e-39
-0.2262762 -0.45540005 1.1500001 3.6863763e-39
-0.22699404 -0.4431783 1.1514287 3.5948981e-39
-0.23109525 -0.43261909 1.1500001 3.776781e-39
-0.22828186 -0.4354839 1.153909 3.6863678e-39
-0.23210853 -0.42436174 1.1535 3.4101635e-39
-0.22837582 -0.42613927 1.1562001 3.5027025e-39
-0.24204764 -0.4107143 1.1500001 3.3172406e-39
-0.23423424 -0.4147011 1.1524582 3.5934744e-39
-0.22809431 -0.41762194 1.1570001 3.5938373e-39
-0.24314289 -0.40523815 1.1500001 2.9474211e-39
-0.23540825 -0.40544885 1.1529999 3.4094432e-39
-0.2426526 -0.39550927 1.1507999 2.9499014e-39
-0.23664699 -0.39588064 1.1550623 3.3179721e-39
-0.2444288 -0.3847093 1.1521598 3.0417327e-39
-0.23823182 -0.38720936 1.1570001 3.5913248e-39
-0.25300002 -0.37128577 1.1500001 3.2268274e-39
-0.24608746 -0.37446293 1.1526469 3.4090775e-39
-0.271254 -0.36106354 1.1500001 3.8704368e-39
-0.26443917 -0.36203709 1.1500001 3.4101859e-39
-0.25484321 -0.3643626 1.1509165 4.6980086e-39
-0.24660911 -0.36503786 1.1540624 1.1795294e-38
-0.2836667 -0.35157144 1.1500001 4.4120513e-39
-0.27373657 -0.3543461 1.15 5.2465315e-39
-0.26473114 -0.35400686 1.151739 1.5115385e-38
-0.25469398 -0.35541186 1.1545198 2.0740763e-38
-0.29096827 -0.34134924 1.1500001 6.4764161e-39
-0.28443122 -0.34490356 1.1506817 1.6134591e-38
-0.27485195 -0.34543994 1.1523598 2.1571221e-38
-0.266709 -0.34697101 1.1559089 2.2771963e-38
-0.25304326 -0.34774309 1.1562001 1.9454746e-38
-0.24926764 -0.34590003 1.153 1.8350907e-38
-0.31652382 -0.33185717 1.1500001 1.3454513e-38
-0.29152265 -0.33536285 1.15075 6.6248094e-39
-0.28475294 -0.33632731 1.1534736 1.2539015e-38
-0.27713239 -0.33778688 1.1537999 2.0928045e-38
-0.32456636 -0.32337102 1.1502727 1.2527399e-38
-0.31519529 -0.32699805 1.1506923 8.2706541e-39
-0.30615813 -0.32737461 1.1522223 8.5439816e-39
-0.29472953 -0.3279019 1.1515 9.2058849e-39
-0.33404765 -0.31871432 1.1500001 1.120467e-39
-0.22667144 -0.43454576 1.1610001 3.7789236e-39
-0.22595239 -0.42421621 1.1630001 3.7796425e-39
-0.22772235 -0.41518921 1.1653637 3.5952694e-39
-0.2314924 -0.40316954 1.163 3.5938443e-39
-0.22810136 -0.40514675 1.1674615 3.9615422e-39
-0.23277307 -0.394914 1.1650001 3.6867546e-39
-0.22823337 -0.39746004 1.169 4.5136454e-39
-0.24215144 -0.38147146 1.161 3.8700627e-39
-0.23568659 -0.38431558 1.1646003 3.6842323e-39
-0.24204998 -0.37450123 1.1624547 6.4418405e-39
-0.23635979 -0.37553635 1.1670002 1.6776712e-38
-0.24283145 -0.36403808 1.1634617 2.2864513e-38
-0.23807971 -0.36508 1.1663334 2.341769e-38
-0.25615719 -0.35124859 1.161 2.1947246e-38
-0.24632187 -0.35667264 1.1622308 2.3141465e-38
-0.23854764 -0.3583762 1.1650001 2.341769e-38
-0.26478541 -0.34481049 1.1616669 1.8712498e-38
-0.25794739 -0.3467204 1.1610001 1.5946674e-38
-0.3073886 -0.32618573 1.161 7.9904238e-39
-0.22454573 -0.42116287 1.1730001 4.1491677e-39
-0.2255033 -0.41509846 1.1730002 4.0558945e-39
-0.2243612 -0.40485692 1.1735002 3.7771341e-39
-0.23151144 -0.39256033 1.1743335 3.1357178e-39
-0.22697988 -0.39483386 1.1750002 4.8781105e-39
-0.23124859 -0.38429716 1.1730001 1.2814073e-38
-0.22742319 -0.38539049 1.1763334 2.0836914e-38
-0.23319526 -0.37494346 1.1738001 2.341769e-38
-0.22901431 -0.37871146 1.1730001 2.341769e-38
-0.23460001 -0.36977431 1.1730001 2.341769e-38
-0.22247791 -0.40333968 1.1810001 4.0523113e-39
-0.22330363 -0.39483243 1.1818 1.8898637e-38
-0.21932858 -0.3992905 1.1810001 2.0938119e-38
-0.22307777 -0.38729307 1.1810001 2.341769e-38
