# .PCD v0.7 - Point Cloud Data file format
VERSION 0.7
FIELDS x y z rgb
SIZE 4 4 4 4
TYPE F F F F
COUNT 1 1 1 1
WIDTH 159
HEIGHT 1
VIEWPOINT 0 0 0 1 0 0 0
POINTS 159
DATA ascii
-0.26040858 0.26931146 0.77900004 4.8960486e-39
-0.21353143 0.26839668 0.77850008 2.2956703e-38
-0.20758498 0.26901469 0.77900004 2.0465984e-38
-0.25521526 0.27242744 0.7790001 5.8148309e-39
-0.24399333 0.27382791 0.77806687 1.8714637e-38
-0.2352351 0.27427649 0.77749997 2.0557093e-38
-0.22484209 0.2743924 0.77899987 2.0834026e-38
-0.21537274 0.27347529 0.77803463 2.0463084e-38
-0.20805129 0.27143118 0.77900004 1.7326616e-38
-0.23963527 0.28711718 0.77900004 2.2137727e-39
-0.23963526 0.29008478 0.77900004 9.6736131e-39
-0.25187558 0.23768893 0.78400004 5.1600826e-39
-0.24447587 0.23686108 0.78590918 4.6086983e-39
-0.23703398 0.23803587 0.78900003 4.8856523e-39
-0.25444704 0.2433183 0.7879166 5.4373547e-39
-0.24590673 0.24324071 0.78818512 4.4232392e-39
-0.23850346 0.24180973 0.78900003 4.328866e-39
-0.26407361 0.26457953 0.7868858 1.8164002e-38
-0.2550652 0.26666877 0.78454179 2.1850727e-38
-0.24536878 0.26768571 0.78416657 2.3325854e-38
-0.23450419 0.26797238 0.78521627 2.341769e-38
-0.22543053 0.2683664 0.78560615 2.341769e-38
-0.21491167 0.26670954 0.78574198 2.3325494e-38
-0.20463301 0.26562482 0.78443503 2.1940384e-38
-0.1964591 0.26562473 0.78609681 2.0370887e-38
-0.25299734 0.27305889 0.78016675 1.1340463e-38
-0.2481143 0.27337146 0.78000003 1.6777476e-38
-0.23177144 0.27857146 0.78000003 1.8989047e-38
-0.22499485 0.27477777 0.78020012 2.1387922e-38
-0.21301067 0.27663279 0.78040004 1.9542194e-38
-0.20412694 0.27441135 0.78225005 1.7879421e-38
-0.19779555 0.27227271 0.78670001 2.0834758e-38
-0.23498218 0.2864126 0.78560972 1.2077286e-38
-0.22634731 0.28446215 0.78609532 1.8989382e-38
-0.21731001 0.28128052 0.78550005 1.981842e-38
-0.20664287 0.28058347 0.78900003 2.0926557e-38
-0.24294907 0.29399762 0.78250003 2.1294981e-38
-0.23461428 0.293284 0.78382355 8.9397097e-39
-0.22770771 0.29430497 0.78799999 6.1767793e-39
-0.21866573 0.29906857 0.78900003 1.2069295e-38
-0.21791431 0.30132288 0.78900003 1.4928442e-38
-0.22399147 0.22806168 0.79584211 5.5299427e-39
-0.21814226 0.22643502 0.79723084 5.898707e-39
-0.24197355 0.23488536 0.79200006 4.1480859e-39
-0.23388629 0.23544592 0.79268754 5.4355863e-39
-0.22584669 0.2340795 0.79493755 7.6471814e-39
-0.21757387 0.23145856 0.79400003 7.8348111e-39
-0.25425774 0.24882689 0.79220003 1.5301903e-38
-0.24412346 0.24818356 0.79237509 1.3368306e-38
-0.23458421 0.24488117 0.79312509 1.3182864e-38
-0.22905073 0.24228026 0.79375005 1.7241984e-38
-0.27335623 0.25649393 0.79611766 1.9820976e-38
-0.26520827 0.2579802 0.79438716 1.9912806e-38
-0.25520605 0.25650486 0.79637164 1.9821321e-38
-0.24559276 0.25587341 0.79652518 1.9913515e-38
-0.23527373 0.25587326 0.79724354 2.194183e-38
-0.2250172 0.25854814 0.79636854 2.3417689e-38
-0.21565811 0.2589882 0.796143 2.341769e-38
-0.20544174 0.25926536 0.79600006 2.341769e-38
-0.19388475 0.25837111 0.79495466 2.2862714e-38
-0.18542764 0.25665295 0.79661781 2.11099e-38
-0.2711305 0.26055717 0.79300004 1.9913197e-38
-0.2649667 0.26119432 0.79150003 2.1019875e-38
-0.25508755 0.26195258 0.79220021 2.1757799e-38
-0.24444921 0.26325101 0.79310519 2.3141095e-38
-0.2354538 0.26328045 0.79211122 2.341733e-38
-0.22489251 0.26358238 0.79233342 2.341769e-38
-0.21512973 0.26211715 0.79280776 2.341769e-38
-0.20474768 0.26112887 0.79331261 2.341769e-38
-0.19422269 0.26428431 0.79204011 2.1940372e-38
-0.18779038 0.26347584 0.79360014 2.2218756e-38
-0.19505972 0.27475518 0.79693758 2.231169e-38
-0.22283609 0.28791845 0.79255563 1.9265242e-38
-0.21446289 0.28574556 0.7917648 1.9726949e-38
-0.20473804 0.28570244 0.79484218 1.8160712e-38
-0.19852002 0.28460002 0.79800016 1.4287419e-38
-0.22377469 0.29479063 0.79216129 1.0789055e-38
-0.21501254 0.29438278 0.79153353 1.078507e-38
-0.20638265 0.29276115 0.79477793 6.996466e-39
-0.19988002 0.29108003 0.79800004 3.0373887e-39
-0.22178827 0.30184349 0.7930001 1.3450087e-38
-0.21620667 0.30058002 0.79100007 1.2797183e-38
-0.21109526 0.21800382 0.80600005 5.6250138e-39
-0.20796263 0.21774262 0.80575013 7.0944056e-39
-0.21383971 0.22637923 0.80272019 5.4391764e-39
-0.20705286 0.22397895 0.80430001 1.4659469e-38
-0.21439022 0.23326701 0.80507708 1.5580683e-38
-0.27428582 0.24799827 0.80587494 1.3826077e-38
-0.26548421 0.24897221 0.80240005 1.0602052e-38
-0.22277525 0.24885908 0.80542868 2.2125867e-38
-0.21468955 0.24811971 0.80700004 2.3233299e-38
-0.20602821 0.24763358 0.80600017 2.341769e-38
-0.1913743 0.24901621 0.80700004 2.341769e-38
-0.18494225 0.24829972 0.80800003 2.2033674e-38
-0.27339268 0.25237671 0.8023001 1.7882691e-38
-0.26543742 0.25333413 0.8012144 1.8714595e-38
-0.25853974 0.25650796 0.80000007 1.9912786e-38
-0.24152383 0.25600001 0.80000001 2.0189391e-38
-0.23378755 0.25476927 0.80000013 2.1664886e-38
-0.22487091 0.25384969 0.8018536 2.2956349e-38
-0.21490675 0.25396097 0.80255312 2.3325494e-38
-0.20498917 0.25423169 0.80381489 2.341769e-38
-0.19538872 0.25337443 0.80331707 2.3325494e-38
-0.18485032 0.25213185 0.80393749 2.1479766e-38
-0.18623526 0.26693088 0.80540007 2.2678309e-38
-0.20190477 0.27961907 0.80000001 2.18561e-38
-0.19284511 0.27779952 0.80120009 2.0279436e-38
-0.18860771 0.27519116 0.80552375 1.7603239e-38
-0.20342858 0.28114289 0.80000001 2.2129077e-38
-0.19358848 0.28445342 0.8003999 1.0130343e-38
-0.18794893 0.2820293 0.80490911 9.499726e-39
-0.2040381 0.29424763 0.80000001 2.1219442e-39
-0.19712649 0.29134592 0.80040008 8.4755015e-39
-0.21330233 0.23783079 0.8157143 2.2956346e-38
-0.18329869 0.23834883 0.81684619 2.2954537e-38
-0.17913501 0.23729503 0.81424999 1.7978128e-38
-0.22140001 0.24762858 0.81000006 2.2126241e-38
-0.21430431 0.24448916 0.81383336 2.3233296e-38
-0.20498647 0.24490418 0.81528956 2.341769e-38
-0.19519337 0.24540769 0.81421268 2.3325494e-38
-0.18513234 0.24442296 0.8129999 2.3047816e-38
-0.17921373 0.24713449 0.81040001 2.1758824e-38
-0.18211177 0.25775307 0.81599998 2.1572341e-38
-0.17939936 0.2546322 0.81155562 2.0741843e-38
-0.18335798 0.26654828 0.81682372 1.9542242e-38
-0.17862001 0.26598001 0.81900007 1.9455408e-38
-0.18369769 0.27496475 0.81328565 8.2933131e-39
-0.17908001 0.27520955 0.81400001 7.4631194e-39
-0.18591429 0.28002858 0.81000006 7.1782915e-39
-0.19217011 0.22943564 0.82900012 2.2772318e-38
-0.18632764 0.22975144 0.82900006 1.9450035e-38
-0.21108763 0.23704223 0.82600009 2.3324773e-38
-0.20474884 0.23677582 0.8261615 2.3417689e-38
-0.19499744 0.23526606 0.82542872 2.3048909e-38
-0.18579693 0.23395768 0.82378781 2.2586836e-38
-0.1790562 0.23378953 0.82100004 1.7514954e-38
-0.21033239 0.24004477 0.82100004 2.341769e-38
-0.20525345 0.24096826 0.82172734 2.341769e-38
-0.19531982 0.24051395 0.82100004 2.3325494e-38
-0.1784924 0.25834191 0.82200003 1.6681987e-38
-0.18141648 0.26681349 0.82157153 1.7606864e-38
-0.17868033 0.26580101 0.82166672 2.0096451e-38
-0.18084002 0.27243525 0.82200003 8.86453e-39
-0.17927429 0.27243334 0.82200003 1.3187934e-38
-0.19599374 0.21899413 0.8386001 2.3049972e-38
-0.21122192 0.22519572 0.83850002 2.1390448e-38
-0.20505287 0.22610319 0.83673686 2.3048183e-38
-0.19513148 0.22485159 0.83332437 2.2587565e-38
-0.1884169 0.22661334 0.83124995 2.2403876e-38
-0.21023335 0.23244669 0.83300006 2.3232573e-38
-0.20555794 0.23205961 0.83131588 2.332549e-38
-0.19785716 0.23030573 0.83100003 2.341768e-38
-0.18677716 0.23030573 0.83100003 2.1481199e-38
-0.21004286 0.21648097 0.84500003 1.8442715e-38
-0.20511134 0.21728662 0.84352642 2.1481572e-38
-0.19915524 0.2171862 0.84150004 2.3234008e-38
-0.21115144 0.22158858 0.84300005 2.0840911e-38
-0.20563044 0.22122815 0.84190917 2.1940756e-38
-0.19943716 0.22026192 0.84100002 2.2406774e-38
