# .PCD v0.7 - Point Cloud Data file format
VERSION 0.7
FIELDS x y z rgb
SIZE 4 4 4 4
TYPE F F F F
COUNT 1 1 1 1
WIDTH 199
HEIGHT 1
VIEWPOINT 0 0 0 1 0 0 0
POINTS 199
DATA ascii
0.55914289 0.51912004 1.2360001 1.972696e-38
0.56856006 0.51912004 1.2360001 1.8712453e-38
0.57091433 0.51912004 1.2360001 1.8437301e-38
0.54972577 0.52382863 1.2360001 2.0922628e-38
0.55560011 0.52233529 1.2348573 1.9634774e-38
0.56573498 0.52335781 1.2360001 1.9264548e-38
0.57421035 0.52288687 1.2360001 1.8343309e-38
0.58150858 0.52265143 1.2360001 1.8434057e-38
0.5576598 0.51769704 1.2447143 1.9542574e-38
0.56514066 0.51535445 1.2445241 1.9450013e-38
0.57539177 0.51490033 1.2443707 1.8528411e-38
0.58509791 0.51428223 1.2454003 1.7883059e-38
0.59532547 0.51521212 1.2456473 1.7051847e-38
0.60477656 0.51563847 1.2452633 1.6405761e-38
0.61448467 0.51683819 1.2475456 1.5667491e-38
0.62464607 0.51697147 1.2469168 1.4378537e-38
0.63354039 0.51887029 1.2490001 1.3271469e-38
0.54906434 0.52658337 1.2425001 2.1017693e-38
0.55475914 0.52224857 1.2434546 2.0003192e-38
0.56567621 0.52198106 1.24 1.9449294e-38
0.57709211 0.52237469 1.24 1.7975247e-38
0.58693397 0.52253753 1.2406249 1.8065279e-38
0.595281 0.52277404 1.2420588 1.714547e-38
0.60474396 0.52295935 1.2403845 1.6315001e-38
0.61456358 0.52338099 1.2433333 1.4931345e-38
0.62393039 0.52364612 1.2426317 1.4102676e-38
0.63527471 0.52519339 1.2482003 1.3732817e-38
0.64234293 0.52814859 1.2490001 1.3917206e-38
0.5558989 0.50867218 1.2552501 1.7059085e-38
0.56718206 0.50768888 1.2577499 1.9450018e-38
0.57529235 0.50642389 1.2558421 1.8712107e-38
0.58482182 0.50735492 1.2568573 1.8435499e-38
0.59520727 0.50767678 1.2589999 1.7328792e-38
0.6048305 0.50796062 1.2579286 1.6407554e-38
0.6140182 0.50832045 1.2585454 1.5946943e-38
0.6270715 0.50935692 1.2575716 1.4562577e-38
0.63425279 0.50971687 1.2573335 1.3826433e-38
0.55651075 0.51762515 1.2584444 1.7699029e-38
0.56442469 0.51376659 1.2565 1.944966e-38
0.57684004 0.51234859 1.2540001 1.8896471e-38
0.59525675 0.51219642 1.256143 1.6958584e-38
0.60351312 0.51223022 1.2556669 1.6314296e-38
0.61660039 0.51352316 1.2558181 1.5945871e-38
0.6255042 0.51424575 1.2561429 1.5024631e-38
0.63584095 0.51468259 1.2547693 1.3271465e-38
0.64438516 0.51766151 1.2578889 1.2719708e-38
0.65108287 0.51918763 1.2590001 1.3638074e-38
0.55562162 0.52488256 1.2573335 1.8899367e-38
0.64502066 0.52500206 1.2543846 1.3088868e-38
0.65108287 0.5239839 1.2590001 1.2444576e-38
0.55276102 0.53357625 1.2590001 1.8437691e-38
0.64610863 0.53145719 1.2540001 1.4101237e-38
0.56895149 0.49918574 1.263 1.9265664e-38
0.57844955 0.49874669 1.268 1.8986501e-38
0.58328003 0.49874669 1.268 1.8984352e-38
0.59618068 0.49889302 1.2663335 1.7514272e-38
0.60399193 0.49887216 1.2665715 1.7054003e-38
0.5662021 0.50434083 1.263 2.0003886e-38
0.57523406 0.50208551 1.26425 1.8804288e-38
0.58430773 0.50214136 1.265 1.8712448e-38
0.59332746 0.50350153 1.2647858 1.7696869e-38
0.60471046 0.50276071 1.2643336 1.6867819e-38
0.61594915 0.50308079 1.2643335 1.5945504e-38
0.62526578 0.50562084 1.2646668 1.5023907e-38
0.63526261 0.50687248 1.2652727 1.3918283e-38
0.64423406 0.50730264 1.2667501 1.3088882e-38
0.55812573 0.51602572 1.263 1.6873965e-38
0.56233573 0.51301861 1.263 1.9361071e-38
0.63631147 0.51121432 1.263 1.3826071e-38
0.64600629 0.51270443 1.2655001 1.2534972e-38
0.65445775 0.5166105 1.2659167 1.2627532e-38
0.66177523 0.51565337 1.268 1.2996315e-38
0.55685276 0.52633905 1.2646668 1.7607196e-38
0.65555722 0.52083719 1.263 1.3086342e-38
0.55671239 0.5337677 1.268 1.7423183e-38
0.57785147 0.49547434 1.2720001 1.8434775e-38
0.58532286 0.49462861 1.2741053 1.7974883e-38
0.59603536 0.49558759 1.2752354 1.769867e-38
0.60596299 0.49573439 1.2750771 1.7144775e-38
0.6155473 0.4958387 1.2760627 1.6315367e-38
0.62512195 0.49620575 1.2770002 1.5301198e-38
0.63536239 0.49662107 1.2762859 1.4287422e-38
0.6446557 0.49583203 1.2766669 1.437963e-38
0.65404868 0.49667448 1.2763336 1.3643494e-38
0.66390496 0.49769223 1.2770001 1.3550214e-38
0.67012101 0.49863815 1.2770001 1.3368343e-38
0.57785147 0.50032002 1.2720001 1.8896824e-38
0.58754289 0.50032002 1.2720001 1.8710286e-38
0.59360003 0.50032002 1.2720001 1.7697594e-38
0.6166172 0.50032008 1.2720001 1.6131692e-38
0.62533951 0.5008046 1.2720002 1.502533e-38
0.63490498 0.5027014 1.2724549 1.437889e-38
0.64456087 0.50371206 1.2720002 1.3642051e-38
0.65417147 0.50395429 1.2720001 1.3273264e-38
0.66352141 0.50461304 1.2736669 1.3364031e-38
0.67255348 0.50593531 1.2770002 1.3272921e-38
0.65572906 0.51174206 1.2720002 1.253677e-38
0.66426671 0.5120306 1.2720003 1.2811583e-38
0.67244816 0.51223004 1.2745001 1.2904866e-38
0.55829072 0.52730644 1.27575 1.4837738e-38
0.56066382 0.52661049 1.2770001 1.6220669e-38
0.55827886 0.53446251 1.276 1.5395221e-38
0.55823147 0.54120481 1.2770001 1.5857285e-38
0.59661645 0.48691499 1.2870001 1.7606816e-38
0.60553277 0.48842356 1.2853334 1.677634e-38
0.61454725 0.48836562 1.2851818 1.6131675e-38
0.6245082 0.48895681 1.285125 1.5667835e-38
0.64656436 0.48844719 1.2870001 1.4749119e-38
0.65453148 0.48783427 1.2870001 1.4656202e-38
0.6626212 0.48807946 1.2870001 1.4194858e-38
0.58972001 0.49204385 1.2820001 1.7883787e-38
0.59627515 0.49173969 1.2848573 1.7514282e-38
0.60540318 0.49301437 1.2827144 1.7052576e-38
0.61536002 0.49204385 1.2820001 1.6498692e-38
0.62512767 0.49204385 1.2820001 1.5578514e-38
0.63518471 0.49300712 1.2835385 1.4748029e-38
0.64591765 0.49177766 1.2845001 1.4658362e-38
0.65488243 0.49207857 1.2842222 1.4472535e-38
0.66394681 0.49398446 1.283875 1.3920432e-38
0.67369717 0.49625599 1.2858889 1.3182149e-38
0.68027145 0.49886575 1.2870001 1.3824297e-38
0.67687845 0.5016467 1.2836668 1.3829685e-38
0.68144703 0.50633645 1.28575 1.3640992e-38
0.55647433 0.53808862 1.2870001 1.5113206e-38
0.56015146 0.5340029 1.2870001 1.4838784e-38
0.55647433 0.54054004 1.2870001 1.5021384e-38
0.56015146 0.54176575 1.2870001 1.5207578e-38
0.67762291 0.46532574 1.296 1.3550211e-38
0.64798367 0.47594213 1.294 1.4379975e-38
0.65440112 0.47585812 1.2946666 1.4472528e-38
0.66335839 0.47629175 1.2948461 1.41963e-38
0.67392004 0.47643429 1.296 1.3735707e-38
0.68397069 0.47625798 1.2960001 1.3366194e-38
0.59877813 0.48197335 1.291 1.8065643e-38
0.60492581 0.48443243 1.291 1.7144398e-38
0.61484194 0.48410356 1.2928181 1.6223163e-38
0.62421858 0.48514786 1.2938572 1.5761473e-38
0.63414013 0.48530874 1.2956153 1.5207941e-38
0.64490145 0.48417011 1.2942499 1.4471819e-38
0.65410686 0.4832029 1.2910001 1.4748759e-38
0.66394293 0.48381767 1.2910001 1.4379242e-38
0.67418557 0.48441023 1.2938948 1.3826085e-38
0.68379432 0.48384011 1.2959998 1.3366185e-38
0.63615495 0.4903526 1.2930001 1.5207575e-38
0.64264214 0.49070561 1.2934999 1.4747699e-38
0.66640192 0.49303907 1.291 1.4195938e-38
0.67418897 0.49276584 1.291 1.3826065e-38
0.6844039 0.49397698 1.2944615 1.3365827e-38
0.68484485 0.50287527 1.2910001 1.3733916e-38
0.55943334 0.53730196 1.291 1.5206126e-38
0.56189239 0.53730196 1.291 1.4930265e-38
0.67041337 0.45896575 1.3060001 1.4102673e-38
0.66792578 0.46891621 1.3060001 1.4473213e-38
0.67617875 0.46748856 1.3043333 1.3734959e-38
0.68030047 0.46677002 1.3035002 1.3183241e-38
0.61828482 0.47951147 1.3010001 1.6686647e-38
0.62522995 0.47808933 1.3032728 1.6038054e-38
0.63430089 0.47636285 1.3027649 1.5393051e-38
0.64430493 0.47703338 1.3010004 1.4933151e-38
0.65673149 0.47264767 1.3060001 1.4839891e-38
0.66431707 0.47265807 1.304889 1.4564365e-38
0.67439127 0.47319081 1.3040771 1.3920076e-38
0.68337125 0.47376859 1.3022501 1.3275439e-38
0.60767817 0.48353288 1.3035002 1.7052928e-38
0.61450481 0.48260361 1.3035001 1.6592664e-38
0.62448001 0.48198956 1.3010001 1.5762196e-38
0.63439238 0.48198956 1.3010001 1.5024642e-38
0.64306581 0.48198956 1.3010001 1.4565102e-38
0.55881053 0.54394192 1.3010001 1.5021737e-38
0.62792003 0.45496002 1.3160001 1.585512e-38
0.66329193 0.4580237 1.3160001 1.4287067e-38
0.67053336 0.45997337 1.3160001 1.4010472e-38
0.63335121 0.46582222 1.3160001 1.5486327e-38
0.6404534 0.46749336 1.3160001 1.5485978e-38
0.65799725 0.46571717 1.3110001 1.4839877e-38
0.66476405 0.46486965 1.3127649 1.4104105e-38
0.67360425 0.46550915 1.311 1.3826791e-38
0.62609899 0.47577578 1.3135 1.5854016e-38
0.63432211 0.47167522 1.3136925 1.5209744e-38
0.64452553 0.47263566 1.3136925 1.5301568e-38
0.65393096 0.47276866 1.3141252 1.4840234e-38
0.66424 0.47071147 1.3110001 1.4473248e-38
0.61695248 0.48179814 1.3140001 1.659195e-38
0.62128222 0.48025116 1.3143334 1.6594794e-38
0.69678056 0.48036337 1.3135002 1.3550232e-38
0.63483495 0.45694023 1.3210001 1.5670711e-38
0.64532 0.45538637 1.3260001 1.5485591e-38
0.65445417 0.45556569 1.3256155 1.4839885e-38
0.66091084 0.45642447 1.3226669 1.465621e-38
0.62778956 0.46801144 1.3210001 1.53927e-38
0.63307357 0.46423718 1.3210001 1.5393407e-38
0.64449108 0.46489751 1.3224708 1.5209027e-38
0.65413469 0.46461478 1.3224285 1.4748407e-38
0.66049492 0.4645848 1.3220001 1.4748414e-38
0.6237008 0.47587454 1.3210001 1.5669629e-38
0.63030577 0.47178575 1.3210001 1.5395947e-38
0.61772478 0.4818505 1.3210001 1.6498681e-38
0.64775336 0.45000479 1.3310001 1.5945148e-38
0.65155625 0.45254004 1.3310001 1.5578514e-38
