# .PCD v0.7 - Point Cloud Data file format
VERSION 0.7
FIELDS x y z rgb
SIZE 4 4 4 4
TYPE F F F F
COUNT 1 1 1 1
WIDTH 1007
HEIGHT 1
VIEWPOINT 0 0 0 1 0 0 0
POINTS 1007
DATA ascii
0.035070017 0.18465555 0.57450563 1.9262749e-38
0.044744909 0.18359035 0.57415003 1.9262392e-38
0.054884497 0.18375587 0.57408327 1.926239e-38
0.064856596 0.18283121 0.57544285 1.9170192e-38
0.075033762 0.18237709 0.57509232 1.9262394e-38
0.084956646 0.18209654 0.57363641 1.9353511e-38
0.094998963 0.18189925 0.57293874 1.9076923e-38
0.10492794 0.18147199 0.57261366 1.9446068e-38
0.1148657 0.18247765 0.57182693 1.9539343e-38
0.12277057 0.18160601 0.57154554 1.871177e-38
0.13931493 0.1802578 0.57066673 1.9540072e-38
0.14072335 0.1803862 0.57050002 1.9723019e-38
0.15616447 0.18010604 0.57133341 1.9816295e-38
-0.02403309 0.19444652 0.57522863 1.3271122e-38
-0.015247433 0.19136406 0.57109684 1.8157849e-38
-0.0081428587 0.19054288 0.57000005 1.8894328e-38
-0.023919685 0.20060733 0.57500005 1.2624662e-38
-0.019000001 0.20357144 0.57000005 1.2441737e-38
-0.014264845 0.21569128 0.57511431 1.2257689e-38
-0.01293261 0.22247736 0.57612008 1.4835145e-38
-0.00831562 0.22403552 0.57180005 1.2991958e-38
0.11611715 0.029730478 0.58900005 1.8532057e-38
0.068171121 0.036887832 0.583 1.1512963e-38
0.074500576 0.036029648 0.58452177 1.6500515e-38
0.10759415 0.035068329 0.58175004 1.9358571e-38
0.11500537 0.035256561 0.58438641 1.8251503e-38
0.12110668 0.036276191 0.58600003 1.4731173e-38
0.063134052 0.044303097 0.58150005 1.0197026e-38
0.058696583 0.056326926 0.58326674 1.9354216e-38
0.060865838 0.055265125 0.58099997 1.4915886e-38
0.05896629 0.061409336 0.583 1.9077286e-38
0.062230512 0.064657845 0.58142304 1.4462849e-38
0.12318096 0.067390479 0.58000004 1.463971e-38
0.0646502 0.075402401 0.58388644 1.3818552e-38
0.11808487 0.078168109 0.58210003 1.6663287e-38
0.12127583 0.077885836 0.58412504 1.5925716e-38
0.06764555 0.084167197 0.58628947 9.6751531e-39
0.072390914 0.086010128 0.58177149 1.12511e-38
0.11601537 0.08527796 0.58258694 1.6014315e-38
0.12110668 0.080923818 0.58600003 1.5731978e-38
0.0692527 0.090906672 0.58800006 9.8504892e-39
0.075295605 0.09457197 0.5842396 1.1972822e-38
0.083537705 0.097187512 0.58135289 1.4354826e-38
0.094817244 0.098308273 0.58042097 1.6015797e-38
0.10586202 0.09631931 0.58195919 1.6094288e-38
0.11355089 0.094602533 0.58516294 1.5086973e-38
0.078146115 0.10256757 0.58806676 1.4161049e-38
0.084967174 0.10480446 0.58560002 1.3417384e-38
0.094934978 0.10456438 0.5841831 1.4709216e-38
0.10463607 0.10487296 0.58640325 1.6554906e-38
0.11155981 0.10252362 0.58778566 1.4618784e-38
0.085720278 0.11037362 0.58828574 1.3693945e-38
0.09511248 0.11125466 0.58809096 1.4800313e-38
0.10216572 0.11056954 0.58833337 1.6280839e-38
0.24619755 0.15983267 0.58885717 1.944677e-38
0.25521684 0.15916787 0.58835292 1.9723723e-38
0.26585808 0.15889162 0.58760726 1.9814475e-38
0.27373707 0.15877545 0.58737499 1.953898e-38
0.12340953 0.16996859 0.58900005 2.0092154e-38
0.13527925 0.16913694 0.58836842 2.0091792e-38
0.14495786 0.16846295 0.58766663 2.0000676e-38
0.15506633 0.16901028 0.58762503 2.0092496e-38
0.16520645 0.16863407 0.5872581 2.009251e-38
0.175182 0.16829395 0.58562499 1.9908473e-38
0.18506186 0.16808674 0.5846445 1.9815919e-38
0.19516675 0.16739406 0.58384132 1.9908474e-38
0.20507462 0.1673651 0.58411115 1.9724077e-38
0.21470486 0.16660644 0.58411944 1.9631527e-38
0.22522296 0.16518374 0.5848031 1.9539327e-38
0.23499732 0.16391203 0.58504623 1.9355663e-38
0.24485242 0.16293922 0.58394283 1.9447132e-38
0.25521109 0.16246164 0.58396363 1.9631887e-38
0.26473838 0.16228914 0.58267325 1.9262748e-38
0.27444836 0.16336362 0.58329171 1.9447503e-38
-0.013436986 0.17970906 0.58783334 1.926203e-38
-0.0042296606 0.17958996 0.58614284 1.9078718e-38
0.0060558598 0.17919578 0.58743483 1.916984e-38
0.015153714 0.17890473 0.58688569 1.9262031e-38
0.025423747 0.17826724 0.58670455 1.91702e-38
0.035159308 0.17765461 0.58698165 1.926131e-38
0.045359336 0.17813572 0.58589357 1.9354584e-38
0.05515087 0.17782901 0.58535862 1.9354589e-38
0.065174021 0.17700461 0.58476698 1.9077999e-38
0.074982345 0.1763186 0.58460802 1.9354222e-38
0.085126653 0.17562591 0.58535606 1.9353856e-38
0.094660752 0.17514355 0.58460706 1.9629373e-38
0.10474486 0.17450495 0.58450001 1.9629739e-38
0.11552453 0.17418566 0.58527863 1.9815205e-38
0.12488764 0.17359562 0.58404166 1.9999951e-38
0.13482474 0.17299625 0.58421528 2.0000317e-38
0.14501259 0.17218219 0.58339626 1.9907762e-38
0.15450439 0.17212518 0.58275503 2.0092147e-38
0.16548537 0.17157729 0.58294874 1.9908476e-38
0.17490211 0.17175743 0.58151352 1.9907755e-38
0.18432108 0.17148528 0.58096659 1.9908471e-38
0.19267994 0.1714958 0.58025002 1.9631524e-38
0.2060381 0.17068572 0.58000004 1.9630797e-38
0.27720025 0.17216025 0.58125007 1.7971259e-38
-0.032346308 0.18551262 0.58633327 1.493174e-38
-0.025273105 0.18393433 0.58469343 1.8618468e-38
-0.015307874 0.18276146 0.58368653 1.8893965e-38
-0.0051513719 0.1823241 0.58253998 1.9078365e-38
0.0042363536 0.18184081 0.58295119 1.9170553e-38
0.015093795 0.18176474 0.58202851 1.9170559e-38
0.024800843 0.18165781 0.58168572 1.9170555e-38
0.034126509 0.18052578 0.58105546 1.9261666e-38
0.0447664 0.1808337 0.58100003 1.9446421e-38
0.055663042 0.18067327 0.58081245 1.9355306e-38
-0.031890567 0.19176431 0.5836364 1.2442081e-38
-0.029055241 0.19189715 0.58000004 1.2439212e-38
-0.028560001 0.20328002 0.588 1.354627e-38
-0.022091992 0.21556048 0.58513641 1.2901234e-38
-0.018470181 0.21665353 0.58106256 1.2348417e-38
-0.01828159 0.22121778 0.58166671 1.7234731e-38
0.076401979 0.027989483 0.59600008 1.9636962e-38
0.080437146 0.027953336 0.59900004 1.953867e-38
0.10861638 0.02646137 0.59593755 2.0742229e-38
0.11318101 0.027314026 0.5934242 2.0559997e-38
0.074720807 0.031895641 0.59084207 1.7055125e-38
0.10912159 0.031094288 0.59366673 2.037198e-38
0.11286762 0.031541459 0.59205884 1.9081969e-38
0.05914215 0.077819288 0.59425002 1.8616305e-38
0.061349809 0.077272393 0.59100002 1.723266e-38
0.059500005 0.082733341 0.59500003 1.8432641e-38
0.063356079 0.085146748 0.59187502 1.4283474e-38
0.12174954 0.088923238 0.59020007 1.6573248e-38
0.066968903 0.094210066 0.59372234 1.2153265e-38
0.071292862 0.098212294 0.59130007 1.2528177e-38
0.11843934 0.096509002 0.59043753 1.6476012e-38
0.12198953 0.094638593 0.59300011 1.5553342e-38
0.069270104 0.10271563 0.59520006 9.2995071e-39
0.074330389 0.10566796 0.59227848 1.3166338e-38
0.080352388 0.10900953 0.59000003 1.3804114e-38
0.10877501 0.10933691 0.59025002 1.4798153e-38
0.11592991 0.1058334 0.59283996 1.5456113e-38
0.12070002 0.10407778 0.59500003 1.6473491e-38
0.076645516 0.11456212 0.59531379 1.0313316e-38
0.084972166 0.11539549 0.59173852 1.3981314e-38
0.094894923 0.11612187 0.59083992 1.4709204e-38
0.10520051 0.11537411 0.59218627 1.5816638e-38
0.11397228 0.11423899 0.59548938 1.4432256e-38
0.12090287 0.11068572 0.59600002 1.4622419e-38
0.077930599 0.12166989 0.59837502 7.1797601e-39
0.085677132 0.12421989 0.59645003 1.5289336e-38
0.095013678 0.1248774 0.59565723 1.4987226e-38
0.10463371 0.12449402 0.5968622 1.5907745e-38
0.11174347 0.12214847 0.598625 1.4246042e-38
0.088994294 0.13063906 0.59900004 9.3712325e-39
0.094828509 0.13180938 0.59891671 1.4710648e-38
0.20602345 0.1592 0.59788239 2.0921896e-38
0.2149083 0.15847358 0.59641939 1.9631887e-38
0.22592783 0.15800926 0.59582239 1.9723e-38
0.23555338 0.15779708 0.59528565 1.9538974e-38
0.24491872 0.15652125 0.5952639 1.9630807e-38
0.25504646 0.15607218 0.59487498 1.9538974e-38
0.26495248 0.15506713 0.59470141 1.9631531e-38
0.27471286 0.15434554 0.59464711 1.9262753e-38
0.28176978 0.15480541 0.59565002 1.9447488e-38
0.046779051 0.16943143 0.59900004 1.9078723e-38
0.055336196 0.16943143 0.59900004 1.9262036e-38
0.066031158 0.16939171 0.59771436 1.9078365e-38
0.074957624 0.16873898 0.59776676 1.9446413e-38
0.08498504 0.16880205 0.59557581 1.8617751e-38
0.095505349 0.16880465 0.59546679 1.9721936e-38
0.10493279 0.1680788 0.59571433 1.9905599e-38
0.11490257 0.16859359 0.59382361 1.9814492e-38
0.12507422 0.16759619 0.595411 1.9814481e-38
0.13519961 0.16626605 0.59465003 2.0368375e-38
0.14540231 0.16490783 0.59525836 2.0276538e-38
0.15506037 0.16468965 0.59476602 2.0184707e-38
0.16491508 0.16449365 0.59493953 2.0275813e-38
0.17490225 0.16404273 0.59450662 1.9999591e-38
0.18536976 0.16350192 0.5933848 1.9999944e-38
0.19482651 0.16331854 0.59525865 1.990811e-38
0.20472267 0.16270162 0.59420979 1.8800674e-38
0.21474743 0.16212732 0.59224433 1.9723364e-38
0.22411656 0.16123629 0.5912258 1.9723004e-38
0.23486987 0.16066478 0.59026676 1.9446777e-38
0.24161907 0.16014287 0.59000003 1.8890694e-38
-0.041121542 0.1777513 0.59776932 1.4838834e-38
-0.034754757 0.17715274 0.59684217 1.8249323e-38
-0.025000092 0.17712422 0.59534377 1.9170553e-38
-0.015213909 0.17587249 0.59433728 1.9170195e-38
-0.0050320174 0.17552547 0.59442681 1.9262393e-38
0.0050447946 0.174429 0.59445965 1.9170199e-38
0.01525631 0.17386484 0.59446347 1.8986522e-38
0.025023689 0.17337546 0.59420294 1.9445701e-38
0.034740008 0.1731858 0.59507549 1.8156763e-38
0.044829786 0.1730466 0.59415728 1.8432627e-38
0.054733228 0.17284189 0.59371001 1.9354594e-38
0.064489789 0.17192242 0.59293747 1.9170195e-38
0.074826181 0.17183435 0.59276909 1.8153506e-38
0.084148347 0.17139652 0.59208 1.4558231e-38
0.095619164 0.17095375 0.59133339 1.9537895e-38
0.10476637 0.17126848 0.59130436 1.9630097e-38
0.11445414 0.17105615 0.59038895 1.9906679e-38
0.12867621 0.17025715 0.59000003 2.0185072e-38
-0.041363895 0.18416896 0.59565228 1.3087433e-38
-0.036481336 0.18399653 0.59251112 1.4378192e-38
-0.02921905 0.18037143 0.59000003 1.861704e-38
-0.040233336 0.19153336 0.59500003 1.3086715e-38
-0.036699634 0.1928522 0.59276927 1.2627171e-38
-0.031681433 0.20358114 0.59050006 1.3087441e-38
-0.027022462 0.21504107 0.59108341 1.4006851e-38
0.079428576 0.02514286 0.60000002 2.2588292e-38
0.085636295 0.02465212 0.60277796 2.2033325e-38
0.095069036 0.023618136 0.60308015 2.2126595e-38
0.10349395 0.023662776 0.60175514 2.2033681e-38
0.059151433 0.094182864 0.60300004 1.8985812e-38
0.062340464 0.095297754 0.60221219 1.657827e-38
0.065847993 0.10635093 0.60415393 1.2251202e-38
0.070402861 0.10932477 0.60100001 1.1146986e-38
0.067794561 0.11513956 0.60570586 8.7499262e-39
0.07222385 0.11603379 0.6017037 8.1027673e-39
0.11776415 0.11789069 0.60122234 1.4432983e-38
0.12280145 0.11661296 0.60492599 1.5368947e-38
0.069891915 0.12130049 0.60650003 1.3280833e-38
0.074536741 0.12547253 0.60450006 9.3956754e-39
0.082335606 0.12810381 0.60069227 1.6135311e-38
0.10737595 0.12939359 0.60049999 1.4704869e-38
0.11548834 0.12549876 0.60245103 1.4435131e-38
0.12210087 0.12383264 0.60616672 1.6109746e-38
0.076754041 0.13348708 0.60647362 1.1605139e-38
0.084686562 0.13495103 0.6031847 1.251018e-38
0.094785929 0.13676518 0.6015228 1.4895025e-38
0.10490948 0.13486208 0.6028136 1.5167659e-38
0.11420649 0.13449278 0.60606116 1.4619883e-38
0.12102096 0.13028572 0.60800004 1.5918232e-38
0.085754827 0.14407435 0.6076141 1.1959155e-38
0.095139854 0.14401382 0.60627276 1.3337414e-38
0.10442611 0.14400868 0.60733926 1.4260455e-38
0.11125118 0.14239839 0.60885715 1.4528766e-38
0.21614535 0.14992402 0.60780007 1.981591e-38
0.22988191 0.14997335 0.60800004 1.9907747e-38
0.23603037 0.14952381 0.60785711 1.9908459e-38
0.24609642 0.14894101 0.60812515 1.9539334e-38
0.25591913 0.14801498 0.60750002 1.9631893e-38
0.26509064 0.14710754 0.60592079 1.9723007e-38
0.27479631 0.14730898 0.60555911 1.9170553e-38
0.28372684 0.14696696 0.60540909 1.9263115e-38
0.092220008 0.15950002 0.60900003 2.0460217e-38
0.10840001 0.15941271 0.60866672 2.0919393e-38
0.11379601 0.15950002 0.60900003 2.0551327e-38
0.1254254 0.15894148 0.6077143 2.0367666e-38
0.13548921 0.15853569 0.60684389 2.0552407e-38
0.14543226 0.15844965 0.60543895 2.0275465e-38
0.15535517 0.15841924 0.60574454 2.0184344e-38
0.1651556 0.1570722 0.60576797 2.0184704e-38
0.17501815 0.15751909 0.60462266 2.0000315e-38
0.18501316 0.15693124 0.60514283 1.9907754e-38
0.19494903 0.15636499 0.60408127 1.9908478e-38
0.20475969 0.15499085 0.60485905 1.9816277e-38
0.21510004 0.15410228 0.60448605 1.9724084e-38
0.22466062 0.15323271 0.60405648 1.9815557e-38
0.23492146 0.15314166 0.60336226 1.9907035e-38
0.24468227 0.15165484 0.60294729 1.963153e-38
0.25487906 0.1516808 0.60215002 1.9631171e-38
0.2648055 0.15132931 0.60090482 1.9447859e-38
0.27571547 0.1506758 0.60041666 1.9077986e-38
0.28387913 0.15165012 0.6012308 1.9631162e-38
-0.043211538 0.16930065 0.6085555 1.7879827e-38
-0.034788329 0.16901043 0.60747838 1.8803221e-38
-0.024490917 0.16832846 0.6069755 1.8985803e-38
-0.01500986 0.16741852 0.60618764 1.9077999e-38
-0.0055841627 0.16742401 0.60644442 1.9077633e-38
0.0056141857 0.16768661 0.6055966 1.9169837e-38
0.015013747 0.16697261 0.6055668 1.9169836e-38
0.024793347 0.16682282 0.60425365 1.9262024e-38
0.035276245 0.16637547 0.60498595 1.9354945e-38
0.045268476 0.16602497 0.60420287 1.9077999e-38
0.054999132 0.16521148 0.60486841 1.9538261e-38
0.064833678 0.16515289 0.60410267 1.9354233e-38
0.074856915 0.16442935 0.60448492 1.9630092e-38
0.085007921 0.1644166 0.60466152 1.9813043e-38
0.094497196 0.16462514 0.60413927 1.9905603e-38
0.10511994 0.16316444 0.60390311 2.0182193e-38
0.11506006 0.16403054 0.60414129 1.9999954e-38
0.12441614 0.16278738 0.60306782 1.9630458e-38
0.13440976 0.16217479 0.60202372 2.046057e-38
0.14347097 0.16151752 0.60109532 2.0276906e-38
0.15485716 0.16057144 0.59999996 2.0184345e-38
0.16494861 0.16094637 0.60033327 2.000032e-38
0.17485717 0.16057144 0.59999996 1.9815564e-38
0.18383203 0.16085355 0.60019994 1.9354933e-38
0.19457145 0.16057144 0.60000002 2.0000306e-38
-0.050672796 0.17714491 0.60757148 1.2810497e-38
-0.045009706 0.17486185 0.60475385 1.4746615e-38
-0.035010979 0.17217875 0.60264599 1.8801782e-38
-0.024998097 0.17220177 0.60246158 1.9170195e-38
-0.014864311 0.17107147 0.6013335 1.9262397e-38
-0.0054556895 0.17080876 0.60131586 1.9262386e-38
0.0022920636 0.17047238 0.60133338 1.9170203e-38
0.01462 0.17028001 0.60200006 1.9262034e-38
0.021213334 0.17028001 0.60200006 1.9353868e-38
0.035887185 0.17072237 0.60107696 1.6127013e-38
-0.04622826 0.18030667 0.60166669 1.2717933e-38
0.062624902 0.10820178 0.61128581 1.5477333e-38
0.063868932 0.11311117 0.61245853 1.1052313e-38
0.067781433 0.12446143 0.6135 6.3525245e-39
0.070525721 0.12764572 0.61200005 1.1156857e-38
0.29062667 0.12923239 0.61400002 2.0368718e-38
0.073018879 0.13695592 0.61430305 1.1505755e-38
0.11849059 0.13770583 0.61137503 1.5740957e-38
0.12283209 0.1358088 0.61332148 1.6295593e-38
0.25467432 0.13971715 0.61900002 1.9723003e-38
0.26533747 0.13964193 0.61866665 1.9999588e-38
0.27493271 0.13952199 0.61653847 1.9723729e-38
0.28586236 0.13790807 0.61800003 1.9355306e-38
0.29230148 0.13639937 0.61800003 1.9263109e-38
0.069534928 0.14083271 0.61700004 1.1607219e-38
0.07609573 0.14412344 0.61433339 1.1327435e-38
0.082429014 0.14760572 0.61184621 1.1695152e-38
0.091650002 0.14925858 0.611 1.0686029e-38
0.10653263 0.14873762 0.61125004 1.0594202e-38
0.11519206 0.14391649 0.61240625 1.3346768e-38
0.12151658 0.14237601 0.61520004 1.3720557e-38
0.17951429 0.1494962 0.61800003 1.7509247e-38
0.1840205 0.14928506 0.61810005 1.9999957e-38
0.19490814 0.14871411 0.61757708 2.0092864e-38
0.20525873 0.14784208 0.61763406 2.0092145e-38
0.21524404 0.14735156 0.61686659 2.0091789e-38
0.22521834 0.14669502 0.61596912 1.9907754e-38
0.23490936 0.14588672 0.61446482 1.9907751e-38
0.24501632 0.14510617 0.61445755 1.9815201e-38
0.25470218 0.14368832 0.61540288 1.9815917e-38
0.26465553 0.14237741 0.61448926 1.9815921e-38
0.27538756 0.14237274 0.61348796 1.9631178e-38
0.28496972 0.14232083 0.61372721 1.935495e-38
0.29169369 0.14153525 0.61666673 1.9446067e-38
-0.017685715 0.15976097 0.61900002 1.8893965e-38
-0.0035371433 0.15976097 0.61900002 1.8892519e-38
0.0047161905 0.15976097 0.61900002 1.8708866e-38
0.015605526 0.15872212 0.61840004 1.880033e-38
0.024519365 0.15858053 0.61790496 1.8708137e-38
0.034731846 0.1583554 0.61812007 1.8798891e-38
0.04575282 0.15840098 0.61776942 1.8338632e-38
0.054352254 0.15831371 0.61720014 1.8892885e-38
0.068670861 0.15913449 0.61840004 1.8615202e-38
0.075008579 0.15739676 0.61637241 1.8983633e-38
0.084956296 0.15601853 0.61598492 1.8154583e-38
0.094969839 0.15608156 0.61604339 1.713971e-38
0.1051466 0.15558608 0.61490405 1.7141154e-38
0.11496792 0.1554905 0.61515498 1.9445681e-38
0.12502021 0.15547478 0.61545902 2.0737523e-38
0.1348137 0.15486613 0.61444849 2.0552772e-38
0.14519513 0.1542118 0.61434549 2.036838e-38
0.1551176 0.15374155 0.61409432 2.0276541e-38
0.16427845 0.15273352 0.61460024 2.0277267e-38
0.17545298 0.15302695 0.61433995 1.9723367e-38
0.18499359 0.15183379 0.61402315 2.0092505e-38
0.1947396 0.15152575 0.61268586 2.0091792e-38
0.20552017 0.15072279 0.61278939 2.0091788e-38
0.21375687 0.15053883 0.6128462 1.9907751e-38
0.22359905 0.15003906 0.61300004 1.9816985e-38
-0.053432472 0.16801557 0.61713052 1.2903058e-38
-0.044718474 0.16618416 0.61554104 1.8064934e-38
-0.034991082 0.16511793 0.61476678 1.907764e-38
-0.025020048 0.16405781 0.61494827 1.8985446e-38
-0.015118875 0.16274427 0.61493874 1.8710297e-38
-0.0047839903 0.16281135 0.6145094 1.8617017e-38
0.0049913954 0.16271423 0.6139645 1.8800329e-38
0.015207238 0.16201311 0.61414999 1.8893245e-38
0.025140021 0.16195087 0.61391121 1.8984724e-38
0.034882013 0.16167082 0.61383325 1.9076907e-38
0.044510633 0.16126347 0.61416125 1.880069e-38
0.055004906 0.16118343 0.61352384 1.9538613e-38
0.065277599 0.16097835 0.61484003 1.9537893e-38
0.075186037 0.16086805 0.61200011 1.9906328e-38
0.08502762 0.16073668 0.61150008 2.0181823e-38
0.09606763 0.16049907 0.61133337 1.9906328e-38
0.10305271 0.16049905 0.61133331 1.944751e-38
0.11696287 0.16002384 0.611 2.073645e-38
-0.053438067 0.17287304 0.61476672 1.2534262e-38
-0.048715342 0.17172296 0.61330003 1.4286356e-38
0.069085717 0.13758096 0.62 9.293445e-39
0.19948287 0.1395781 0.62900001 1.9907023e-38
0.20068097 0.1395781 0.62900001 1.9906669e-38
0.2182216 0.1390308 0.62833333 1.9908823e-38
0.22525062 0.13890067 0.62846678 2.0000314e-38
0.23527156 0.13886541 0.62788892 1.9908834e-38
0.24567628 0.13822128 0.62683785 2.0091785e-38
0.25576159 0.1374277 0.62563413 1.9999585e-38
0.26490888 0.13676247 0.62570965 1.9723367e-38
0.27516258 0.13627937 0.62532306 1.9631531e-38
0.28469586 0.13476194 0.62386203 1.9447498e-38
0.29240149 0.13364743 0.62446672 1.9447136e-38
0.30033717 0.13920954 0.62200004 1.5106046e-38
0.069324367 0.14848028 0.62828577 1.5941538e-38
0.072512075 0.14850906 0.62666672 1.5110329e-38
0.11892763 0.1486108 0.62333339 1.1330339e-38
0.12560776 0.14812297 0.62504154 1.5482718e-38
0.13525283 0.14765522 0.62663162 1.8984e-38
0.14515567 0.14674242 0.6264118 1.9538258e-38
0.1550869 0.14643587 0.62608331 1.9815205e-38
0.16495407 0.14664848 0.62577784 2.0091784e-38
0.17520878 0.14593913 0.6256429 2.0000315e-38
0.18496151 0.14519304 0.62470859 2.0183979e-38
0.19530372 0.14448939 0.62485939 2.0183979e-38
0.20453377 0.14311948 0.62425941 2.0092145e-38
0.21512161 0.14265363 0.62344879 1.9999948e-38
0.22495247 0.14156422 0.62356424 1.98152e-38
0.23515703 0.14132947 0.62353128 1.9723731e-38
0.24387574 0.14103915 0.62213051 1.9723727e-38
0.29927954 0.14073287 0.62349999 1.8152085e-38
0.30033717 0.1403943 0.62200004 1.5663522e-38
-0.0528781 0.15854356 0.62785709 1.7511392e-38
-0.04456079 0.15752551 0.62677503 1.889325e-38
-0.034899704 0.15751942 0.62609804 1.8892889e-38
-0.02502564 0.1572836 0.62558341 1.8801058e-38
-0.01497356 0.15669191 0.62464416 1.8709221e-38
-0.0044742865 0.15627576 0.62445629 1.8708495e-38
0.0046083056 0.15596065 0.62426221 1.852375e-38
0.015006062 0.15536566 0.62491369 1.8523389e-38
0.025196396 0.15434366 0.62514538 1.8247512e-38
0.035114303 0.15401696 0.62495476 1.8246431e-38
0.044922944 0.15372874 0.62506163 1.7969849e-38
0.055236135 0.15400547 0.62454849 1.7877295e-38
0.065020166 0.15444939 0.62453115 1.7326276e-38
0.074625477 0.15288533 0.62275594 1.6679824e-38
0.082371436 0.15381905 0.62 1.6679465e-38
0.11715493 0.15125826 0.62283343 1.1515799e-38
0.12496558 0.15147552 0.6231851 1.8432262e-38
0.13522145 0.1512329 0.62273067 2.0367653e-38
0.14454696 0.15086317 0.62190473 2.0646045e-38
0.15370692 0.15084158 0.6216315 2.0460933e-38
0.1653883 0.15059268 0.6213125 1.9815571e-38
0.17261641 0.15086932 0.62192863 1.7690041e-38
-0.05455992 0.16344272 0.62507999 1.3825743e-38
-0.045897659 0.16163562 0.62260014 1.8617025e-38
-0.035243206 0.16130772 0.62145454 1.8893608e-38
-0.025525425 0.16075122 0.62107706 1.8892906e-38
-0.0124 0.16001906 0.62 1.8616661e-38
-0.0082666669 0.16001906 0.62 1.9076179e-38
0.063925244 0.1604062 0.62150002 1.9353148e-38
0.25864145 0.12932144 0.63850009 1.981592e-38
0.26553559 0.12919465 0.63837504 1.9908474e-38
0.27544138 0.12867869 0.63804764 2.0092152e-38
0.2846424 0.12835838 0.63603032 1.9447136e-38
0.29256827 0.12703641 0.63622218 1.9540416e-38
0.15648001 0.13906249 0.63800007 1.8616295e-38
0.16510642 0.13911438 0.63736361 1.8985443e-38
0.17480254 0.13886905 0.63696164 1.8800329e-38
0.18551531 0.13860729 0.63614297 1.9447135e-38
0.19490415 0.13739803 0.63557154 1.9906672e-38
0.20541194 0.13696049 0.63550007 1.9815194e-38
0.2151612 0.13632095 0.63569653 1.9815921e-38
0.22506732 0.13520853 0.63481057 1.9908118e-38
0.23484585 0.13476531 0.63391542 1.9908839e-38
0.24464755 0.13358192 0.63403851 2.0000308e-38
0.25463477 0.13327482 0.63390154 2.0092148e-38
0.2649821 0.13163824 0.63309097 2.0000669e-38
0.27503705 0.13141222 0.63288581 1.9448228e-38
0.28550214 0.1312983 0.6319474 1.9079075e-38
0.29186416 0.13088703 0.63187504 1.9632256e-38
-0.034080002 0.14910001 0.63900006 1.8523385e-38
-0.024342861 0.14910001 0.63900006 1.8432265e-38
-0.014476926 0.14853397 0.63738465 1.8615942e-38
-0.0047389423 0.14827423 0.6366297 1.8339721e-38
0.0047764457 0.14819132 0.63720006 1.8246803e-38
0.015189335 0.14824358 0.63668579 1.8155676e-38
0.025304602 0.14805645 0.6355477 1.7970567e-38
0.035241973 0.14743862 0.63565111 1.7693617e-38
0.04486119 0.14732789 0.63575464 1.7324484e-38
0.055104889 0.14734294 0.63556862 1.7140445e-38
0.064705469 0.14668545 0.63454735 1.6125926e-38
0.071198098 0.14663176 0.63533342 1.4005733e-38
0.12732306 0.14685543 0.63299996 1.3821769e-38
0.1346342 0.14405282 0.6346668 1.7602502e-38
0.14486411 0.14310341 0.63454849 1.8524832e-38
0.15445854 0.14177708 0.63496977 1.8892882e-38
0.16469403 0.14211637 0.6328789 1.9446412e-38
0.17457448 0.14139809 0.63280952 1.8432969e-38
0.18523967 0.14094085 0.63258821 1.843225e-38
0.19422609 0.14063811 0.63169235 1.9907031e-38
0.20663726 0.14049673 0.63133335 2.0090713e-38
0.21268582 0.14052117 0.63144445 1.9907757e-38
-0.060884293 0.15615287 0.63716674 1.2254443e-38
-0.054934584 0.15541677 0.6346547 1.6497251e-38
-0.044878062 0.15313806 0.63529438 1.8708491e-38
-0.035063218 0.15233383 0.63475025 1.8708858e-38
-0.025277261 0.15226278 0.63471437 1.8708851e-38
-0.014920572 0.15221803 0.63300008 1.8708854e-38
-0.0053471262 0.15187563 0.63274187 1.8524104e-38
0.0051563317 0.15150335 0.63266677 1.8431552e-38
0.013843335 0.15156674 0.63207161 1.8247512e-38
0.024477417 0.15073512 0.63128579 1.8154952e-38
0.034913335 0.15047526 0.63200003 1.8061329e-38
0.042699527 0.15065715 0.63150001 1.7693264e-38
0.056706671 0.15056621 0.63174999 1.7508873e-38
0.060696196 0.15083906 0.63100004 1.7417745e-38
-0.058893338 0.1604543 0.63100004 1.1423972e-38
0.18267429 0.12898287 0.648 1.9078358e-38
0.2055742 0.12866436 0.6477778 1.9540046e-38
0.2145063 0.12877908 0.6476 1.9815563e-38
0.22545484 0.12896493 0.64726305 1.9907032e-38
0.2352303 0.12797484 0.64584386 1.9815558e-38
0.24520326 0.12660301 0.64520848 1.9908107e-38
0.25471365 0.12630332 0.64407927 1.9908473e-38
0.26559022 0.12547503 0.64446551 1.9999952e-38
0.27447516 0.12432718 0.64346427 2.0000671e-38
0.28505307 0.12336089 0.6434685 1.9261313e-38
0.29170379 0.1222688 0.64192861 1.8431202e-38
0.045444336 0.1390471 0.64745003 1.6771665e-38
0.05591619 0.13917249 0.64755547 1.6309605e-38
0.063003182 0.13885224 0.64749998 1.5573113e-38
0.1366564 0.13772584 0.64512509 1.7232642e-38
0.14560652 0.13703942 0.64638305 1.7233732e-38
0.15471363 0.13590345 0.6441837 1.7326644e-38
0.16494253 0.13548572 0.64310879 1.8801048e-38
0.17532314 0.1345171 0.64358014 1.9169473e-38
0.18484826 0.13380982 0.64392424 1.935422e-38
0.19522671 0.13264009 0.64313042 1.9538969e-38
0.20481282 0.13228926 0.64363039 1.9631169e-38
0.21468528 0.13128789 0.64336097 1.9723731e-38
0.22491421 0.13125916 0.64286965 1.9815204e-38
0.23456924 0.13079627 0.64229417 1.9815923e-38
0.24421979 0.13060111 0.64139998 1.9908116e-38
0.25090572 0.13003144 0.64100003 2.0092505e-38
-0.062065721 0.14942573 0.64780003 1.4193077e-38
-0.054724604 0.14767507 0.64520526 1.8249686e-38
-0.045085479 0.14684756 0.64416999 1.8523741e-38
-0.03500827 0.14628187 0.6445002 1.8708132e-38
-0.024967562 0.14578667 0.64406562 1.8524105e-38
-0.014773356 0.14459938 0.64397836 1.8432631e-38
-0.0050871633 0.14433797 0.64427084 1.8340072e-38
0.0049588764 0.14381109 0.64458001 1.8063128e-38
0.014631174 0.14338124 0.64426947 1.7970201e-38
0.024861177 0.14350072 0.64411777 1.7694353e-38
0.034955475 0.14263359 0.64438778 1.7416674e-38
0.045414437 0.14244618 0.64394456 1.6863859e-38
0.05498521 0.14271349 0.64373702 1.6586559e-38
0.063370652 0.14225349 0.64423823 1.5666391e-38
0.13667981 0.14104131 0.6415 1.7417396e-38
0.14445639 0.14128703 0.64272738 1.9077616e-38
-0.061610706 0.15281731 0.6424616 1.2072228e-38
-0.056563955 0.15153939 0.64135003 1.686676e-38
-0.048152387 0.15055239 0.64000005 1.8892869e-38
0.24637076 0.11917145 0.65763646 1.990847e-38
0.25450638 0.11911049 0.65766674 1.999995e-38
0.26538795 0.11883766 0.65694118 1.990883e-38
0.27515045 0.11740864 0.65626204 1.990776e-38
0.28459683 0.11740171 0.65443772 1.95397e-38
0.29381731 0.11671954 0.65486842 1.8709226e-38
0.065732703 0.12958857 0.65733337 1.5019947e-38
0.13974668 0.12972 0.65800005 1.7693254e-38
0.14625172 0.12881069 0.65720004 1.7786896e-38
0.15562139 0.12823679 0.65608829 1.8247871e-38
0.16492234 0.12822273 0.65521634 1.8616654e-38
0.1753875 0.12819907 0.65482867 1.8893246e-38
0.18522117 0.12665722 0.65540761 1.9170195e-38
0.19505875 0.12671281 0.65366673 1.9263469e-38
0.2048206 0.12573168 0.65353066 1.9631164e-38
0.21526077 0.12536021 0.65296012 1.9815561e-38
0.22493295 0.12445363 0.65291256 1.9908114e-38
0.23465978 0.12384378 0.65348899 1.9447493e-38
0.24440263 0.1226023 0.65432513 1.972408e-38
0.25510514 0.12156839 0.65362966 1.999995e-38
0.26440749 0.12127809 0.65253842 1.9908474e-38
0.27501839 0.12062163 0.65207696 1.9907765e-38
0.28148001 0.12090001 0.65100002 1.9906665e-38
0.29431793 0.12082572 0.65060008 1.8802851e-38
-0.060786672 0.13974668 0.65800005 1.6687028e-38
-0.054230779 0.13862424 0.65768415 1.8615579e-38
-0.044905368 0.13866685 0.6572631 1.8063116e-38
-0.034645397 0.13835551 0.65603703 1.834079e-38
-0.024739694 0.13835408 0.65526474 1.8246072e-38
-0.014956382 0.13770968 0.65430015 1.8340077e-38
-0.0049401857 0.13760091 0.65421957 1.8432269e-38
0.0050845756 0.13743715 0.65343916 1.8340068e-38
0.015042682 0.13697435 0.65420419 1.8247152e-38
0.024562325 0.13665366 0.65332007 1.7787262e-38
0.03512802 0.13671714 0.65279174 1.7325203e-38
0.044522129 0.13564412 0.65372103 1.6770947e-38
0.054570686 0.13564807 0.65339142 1.6032659e-38
0.063602783 0.13463554 0.65402788 1.5111783e-38
0.13747708 0.13363151 0.65317398 1.6862435e-38
0.14490351 0.13226394 0.65315801 1.7878371e-38
0.15457647 0.13183095 0.65183991 1.8063839e-38
0.16488791 0.13203365 0.65087509 1.8617011e-38
0.17374614 0.13145596 0.65046668 1.9169465e-38
0.18014286 0.13061905 0.65000004 1.9261318e-38
0.19319257 0.13065255 0.65016675 1.944714e-38
-0.062702499 0.14492624 0.65414721 1.4654415e-38
-0.054986544 0.14282814 0.6533637 1.8155676e-38
-0.044938676 0.14209872 0.65283328 1.8247873e-38
-0.035488576 0.14176676 0.65207142 1.8524094e-38
-0.024532551 0.14140494 0.65070587 1.8524455e-38
-0.014881489 0.14137317 0.65106255 1.8432271e-38
-0.0045282054 0.1410998 0.65046161 1.8340077e-38
0.0049523814 0.14052381 0.65000004 1.8156051e-38
0.015487621 0.14085792 0.6504001 1.7878015e-38
0.024142858 0.14052382 0.65000004 1.7603236e-38
0.033239052 0.14100859 0.6503334 1.7417038e-38
0.27970573 0.10895143 0.66900003 1.9634413e-38
0.28519544 0.1092502 0.66693747 1.9999952e-38
0.29299772 0.10797177 0.66535008 1.9263096e-38
0.18795715 0.11882715 0.66900003 1.9262027e-38
0.19506876 0.1186341 0.66881251 1.9450024e-38
0.20510405 0.11874466 0.66676003 1.8985805e-38
0.2151982 0.11803476 0.66563338 1.9540051e-38
0.22489731 0.11802772 0.66606671 1.9907754e-38
0.2351938 0.11738695 0.66504896 1.7880173e-38
0.24494512 0.11544096 0.6645965 1.9724076e-38
0.25546929 0.11489142 0.6641553 2.000067e-38
0.26492909 0.11424848 0.66269988 1.9908481e-38
0.27494854 0.1123042 0.66408914 2.0092149e-38
0.28508765 0.11232152 0.66205728 2.0000677e-38
0.29280421 0.11211919 0.66104555 1.889326e-38
-0.014791429 0.12901387 0.66877782 1.8615939e-38
-0.0050969049 0.12929167 0.66875005 1.8707043e-38
0.0050895242 0.12850952 0.66800004 1.4931e-38
0.015214288 0.12881672 0.668091 1.8616305e-38
0.025917329 0.12856978 0.66690475 1.8431555e-38
0.03499255 0.12787239 0.66799992 1.6862079e-38
0.044562679 0.1278528 0.66740733 1.6679849e-38
0.054603677 0.128251 0.66666657 1.5848994e-38
0.062472519 0.12765469 0.66568184 1.4926675e-38
0.13912477 0.12905239 0.66100001 1.649689e-38
0.14495027 0.12635165 0.66405016 1.7602505e-38
0.15474258 0.12419182 0.66400003 1.8247154e-38
0.16566536 0.12348092 0.66433346 1.8616302e-38
0.17491084 0.12345295 0.6623193 1.8985439e-38
0.18502469 0.12170216 0.66360623 1.9262379e-38
0.19558913 0.12201599 0.66500014 1.7046437e-38
0.20537902 0.12167408 0.66224003 1.8341519e-38
0.21508898 0.12160568 0.66159099 1.9447139e-38
0.22432894 0.1208953 0.66164291 1.9815921e-38
0.23564266 0.1205559 0.6606155 1.8155294e-38
0.24173716 0.12023906 0.66100001 1.7238011e-38
-0.062777236 0.13741264 0.66580957 1.392045e-38
-0.055114366 0.13554275 0.66447496 1.7784738e-38
-0.044899985 0.13480115 0.66443753 1.7787606e-38
-0.0350927 0.13406816 0.66445839 1.8524109e-38
-0.025468677 0.13345976 0.6648891 1.8432268e-38
-0.015181667 0.13282618 0.66416693 1.8616662e-38
-0.0050954008 0.132624 0.66348952 1.8984364e-38
0.0049648024 0.13276476 0.66419172 2.0091436e-38
0.015045178 0.13193327 0.66317958 1.8340075e-38
0.025424229 0.1321108 0.66261768 1.8155327e-38
0.034989983 0.13225673 0.66347378 1.750994e-38
0.045308571 0.13178511 0.66368759 1.741667e-38
0.055720188 0.13175978 0.66196167 1.5664241e-38
0.062128983 0.13118151 0.6608572 1.5019225e-38
0.1389143 0.13011429 0.66000003 1.6588004e-38
-0.063776001 0.14075926 0.66040009 1.2352051e-38
0.22636186 0.1088504 0.67869997 1.9815563e-38
0.23567651 0.1087504 0.67778957 1.990812e-38
0.2453181 0.10846708 0.67668974 2.000103e-38
0.25502387 0.10802354 0.67541182 1.9908834e-38
0.26526666 0.10696672 0.67528886 2.0000673e-38
0.27511454 0.10611244 0.67416084 2.000139e-38
0.28536016 0.10479093 0.67447186 1.9909195e-38
0.29173878 0.10372259 0.67452383 1.9815567e-38
0.057553336 0.11963334 0.67900002 1.8339361e-38
0.064058535 0.11878442 0.67818183 1.8524101e-38
0.14525269 0.11741769 0.6770345 1.7137586e-38
0.15557171 0.11739599 0.67551279 1.8616291e-38
0.16496274 0.11710221 0.67476606 1.8801053e-38
0.17513473 0.11641102 0.67496383 1.8893239e-38
0.18475099 0.11582696 0.6738112 1.9353863e-38
0.19529794 0.11460494 0.6738224 1.963081e-38
0.20483349 0.11415942 0.67306387 1.9631531e-38
0.21469948 0.11314327 0.67384011 1.9723363e-38
0.22494386 0.11272281 0.67300004 1.9815924e-38
0.23459835 0.11260367 0.6720975 2.0000674e-38
0.24391362 0.11136516 0.67126673 1.9817e-38
0.25382027 0.11093946 0.67075002 2.0184328e-38
0.26446572 0.11051405 0.67075002 1.9908836e-38
0.27757144 0.11039048 0.67000002 2.0093233e-38
-0.06196858 0.12801854 0.67700005 1.4748408e-38
-0.054757729 0.12829354 0.67525011 1.7231222e-38
-0.044698611 0.12821934 0.6746285 1.7511759e-38
-0.034599029 0.12742862 0.67502278 1.8801053e-38
-0.025009094 0.12696609 0.67410856 1.8801778e-38
-0.014947416 0.12604786 0.67416668 1.8892901e-38
-0.0051444052 0.12536937 0.67512524 1.907764e-38
0.0049019274 0.12487478 0.67434078 1.8893982e-38
0.01542704 0.12541217 0.67369556 1.9169117e-38
0.024956685 0.12404502 0.67533356 1.9261311e-38
0.034452874 0.12395127 0.67575634 1.8984371e-38
0.045500729 0.12397067 0.67486846 1.8524106e-38
0.055096887 0.12352325 0.67468739 1.7231927e-38
0.063461721 0.12262025 0.67465383 1.6772019e-38
0.13995144 0.12461429 0.671 1.5295457e-38
0.14450186 0.12220649 0.67346156 1.7138284e-38
0.15374573 0.12114333 0.67124987 1.8247514e-38
0.16307822 0.12108539 0.67033339 1.8799979e-38
0.17558764 0.12067715 0.67042863 1.8892522e-38
0.18121906 0.12060001 0.67000002 1.9261311e-38
-0.063093431 0.13309486 0.67189997 1.2907022e-38
-0.055822901 0.13166618 0.67112505 1.7691117e-38
-0.045536797 0.13115758 0.67000008 1.6311784e-38
-0.036371436 0.13080953 0.67000002 1.7970577e-38
0.2654492 0.099194169 0.6886251 2.0184693e-38
0.27518082 0.098575406 0.68850011 2.0092861e-38
0.28625429 0.097586215 0.68745959 1.9632248e-38
0.29101399 0.09699969 0.68666673 1.9633695e-38
0.15551716 0.10958382 0.68900007 1.9262397e-38
0.16587614 0.10833331 0.68815011 1.9815567e-38
0.17491901 0.10861722 0.68756258 1.9631177e-38
0.18537368 0.10802148 0.6861819 1.9723721e-38
0.19519576 0.10796262 0.68522233 1.972373e-38
0.20527843 0.10731713 0.68447733 1.9815926e-38
0.21491159 0.10632716 0.68381989 1.9816279e-38
0.22470421 0.10499923 0.68439287 1.9816642e-38
0.23489182 0.10412901 0.68395674 1.9725168e-38
0.24476929 0.10390864 0.68456101 2.0000671e-38
0.25543541 0.10318869 0.68435431 2.0092511e-38
0.26468253 0.10202409 0.68315148 2.0276535e-38
0.27423725 0.101211 0.68337047 2.009287e-38
0.28398982 0.10103817 0.68153346 2.000139e-38
-0.045328382 0.11934878 0.68780011 1.6587998e-38
-0.021783693 0.11890298 0.68787503 1.8615939e-38
-0.015246008 0.11795525 0.68560874 1.8892536e-38
-0.0049626352 0.11767425 0.6857 1.9169118e-38
0.005044952 0.11820035 0.68632001 1.8800682e-38
0.015237812 0.11732569 0.68570006 1.9262038e-38
0.024754079 0.11739738 0.68444443 1.9261671e-38
0.034981608 0.11708546 0.68477279 1.9353141e-38
0.04523699 0.11692653 0.68467575 1.9076917e-38
0.054681174 0.11704364 0.68406665 1.8616306e-38
0.062198702 0.11656419 0.68475008 1.861667e-38
0.14750586 0.11345714 0.68357152 1.833682e-38
0.15443122 0.11283603 0.68346167 1.8708856e-38
0.16485284 0.11197414 0.68334389 1.9077637e-38
0.17471471 0.11139827 0.68339986 1.9262742e-38
0.18454432 0.11146372 0.68177778 1.9538609e-38
0.1940897 0.11131035 0.68083334 1.9538983e-38
0.20464763 0.11074287 0.67999995 1.9631879e-38
0.2104762 0.11074287 0.68000001 1.9724442e-38
-0.061532967 0.12431233 0.68453848 1.4657645e-38
-0.054742154 0.12318323 0.68425995 1.6865656e-38
-0.045077298 0.12322732 0.68279064 1.7141169e-38
-0.035330731 0.12225625 0.68459541 1.8709221e-38
-0.024896007 0.12193028 0.68386108 1.8432992e-38
-0.015444431 0.12171806 0.68186963 1.8893253e-38
-0.0051932149 0.12069962 0.68137509 1.8984364e-38
0.0057152868 0.12115546 0.68175012 1.8708139e-38
0.014584764 0.12122948 0.68147379 1.9262034e-38
0.020105716 0.12063334 0.68099999 1.9446056e-38
0.036846384 0.12078086 0.68110001 1.926166e-38
0.043890793 0.12103417 0.68106681 1.8985082e-38
0.27676255 0.089742862 0.69800007 1.944965e-38
0.28185907 0.089742862 0.69800001 1.9542563e-38
0.19923335 0.099947624 0.69500005 1.9815553e-38
0.20532961 0.099373125 0.69669235 2.0000676e-38
0.21501535 0.098819725 0.69694126 1.9540408e-38
0.22517902 0.098571993 0.69573081 2.000067e-38
0.2350903 0.097789846 0.69451523 2.018506e-38
0.24531984 0.096890554 0.69410533 2.0185063e-38
0.25504023 0.096634828 0.6939593 2.0001755e-38
0.26515809 0.094939485 0.69431394 2.009359e-38
0.27499998 0.094126768 0.69377369 1.9908118e-38
0.28406274 0.09352795 0.69364727 1.9262385e-38
0.29015812 0.093194291 0.69400001 2.0459843e-38
0.0099714296 0.10968572 0.69800001 1.9261313e-38
0.015289526 0.10968573 0.69800007 1.8985086e-38
0.026133968 0.10919017 0.69766665 1.9077281e-38
0.035073813 0.1092083 0.69749999 1.8985454e-38
0.044367243 0.10932554 0.69740003 1.8893246e-38
0.055877462 0.10932044 0.69755554 1.8708137e-38
0.06206109 0.10886926 0.6964286 1.8801412e-38
0.14951017 0.10576922 0.69566673 1.7968071e-38
0.15538274 0.10631967 0.6946401 1.9723012e-38
0.16463178 0.10431311 0.6935001 2.0184705e-38
0.17520751 0.10429542 0.69325608 2.0186151e-38
0.18468302 0.10356145 0.69338894 2.0091789e-38
0.19482563 0.10277973 0.6934635 1.9999951e-38
0.20485969 0.10243652 0.69233358 1.9908478e-38
0.21497273 0.10164329 0.69305009 1.9816273e-38
0.22427295 0.10093658 0.69180006 1.9816283e-38
0.23551145 0.10065214 0.69075006 1.9817005e-38
0.24531813 0.10062613 0.69057149 2.0093219e-38
0.25234288 0.10054287 0.69000006 2.0000678e-38
-0.055134784 0.11664464 0.69361556 1.640468e-38
-0.044646848 0.11604635 0.69393045 1.7141172e-38
-0.035005704 0.11557014 0.69348997 1.7786527e-38
-0.025604514 0.1150913 0.69405693 1.8524468e-38
-0.014850325 0.11379606 0.69418937 1.8708861e-38
-0.0054769842 0.11324624 0.69426215 1.8892889e-38
0.0053809942 0.11352168 0.69348955 1.8984368e-38
0.014995096 0.1128078 0.69369721 1.9076561e-38
0.025246974 0.11245176 0.6933825 1.916948e-38
0.034971226 0.11217334 0.69285738 1.9077283e-38
0.044849534 0.11211533 0.6925 1.8984368e-38
0.055113025 0.11225148 0.6928001 1.87085e-38
0.063211441 0.11218287 0.69209999 1.880033e-38
-0.061114289 0.12025715 0.69000006 1.4478262e-38
-0.058047622 0.12025716 0.69000006 1.6129895e-38
0.23734859 0.089680009 0.708 2.0001397e-38
0.24515769 0.088902928 0.70718741 2.0277621e-38
0.25519854 0.088651955 0.70626664 2.0277614e-38
0.26513651 0.088771023 0.70681256 2.0277616e-38
0.27549285 0.087710179 0.7052002 1.9908117e-38
0.28284732 0.086970918 0.70195019 1.972265e-38
0.15448952 0.098419383 0.70470601 2.0001389e-38
0.16505007 0.099028766 0.70556259 2.0001037e-38
0.17552432 0.098289445 0.70517856 2.027725e-38
0.185149 0.096532494 0.70487249 2.0276902e-38
0.19508229 0.096327595 0.70442581 2.0000676e-38
0.20500752 0.095216736 0.70433331 2.009323e-38
0.21482705 0.094089098 0.70316344 2.0000314e-38
0.22513714 0.093781061 0.70397782 1.9816277e-38
0.23497218 0.092991568 0.70302635 2.0001389e-38
0.24467506 0.092487961 0.70278138 2.0185788e-38
0.25480491 0.091593765 0.70154554 2.0277621e-38
0.26360703 0.090860493 0.70150006 2.0185788e-38
0.27422225 0.090000004 0.70000005 1.9726594e-38
0.28666669 0.090000004 0.70000005 1.8617764e-38
-0.052322339 0.10849967 0.70681816 1.6497235e-38
-0.045069754 0.10829522 0.70628572 1.7602142e-38
-0.034799881 0.10760294 0.70574188 1.7787259e-38
-0.024924129 0.10763542 0.70588899 1.8524457e-38
-0.014643736 0.10675164 0.70453852 1.8617387e-38
-0.0046562464 0.10674065 0.70441186 1.8708139e-38
0.0048616859 0.10611654 0.7035386 1.8616306e-38
0.014846738 0.10636184 0.70307338 1.889181e-38
0.024586959 0.10560783 0.7035898 1.8892885e-38
0.035106421 0.10509793 0.7040202 1.8984361e-38
0.044919372 0.10549214 0.70295131 1.8708137e-38
0.054218922 0.10614518 0.70239478 1.870813e-38
0.061654609 0.10655017 0.70366669 1.8892524e-38
0.14877287 0.10207191 0.70050001 1.6127049e-38
0.15476227 0.10171547 0.70200008 1.9907762e-38
0.16375747 0.10092874 0.70183343 2.0000674e-38
0.17380191 0.10105646 0.7001819 2.0369817e-38
0.18466669 0.10066666 0.70000011 2.018434e-38
0.192 0.10066667 0.70000005 1.9907757e-38
-0.053577386 0.11228564 0.70250005 1.6129181e-38
-0.045199599 0.11176623 0.70233339 1.7602496e-38
-0.035056572 0.11086383 0.70153344 1.7418105e-38
-0.024189597 0.11088735 0.70107698 1.8431902e-38
-0.015589785 0.11044936 0.70054543 1.8431913e-38
-0.004666667 0.11000001 0.70000011 1.8616305e-38
0.004666667 0.11000001 0.70000011 1.8708865e-38
0.26799032 0.079206288 0.71820009 2.009395e-38
0.27429271 0.078624912 0.71671426 1.9631878e-38
0.16684952 0.089579046 0.71800005 1.9909565e-38
0.17523645 0.089672618 0.71875 2.0739664e-38
0.18575905 0.089376673 0.71775007 2.0185421e-38
0.19607829 0.089182861 0.71781826 2.0185065e-38
0.20516045 0.087534055 0.71634489 2.0001401e-38
0.21523975 0.086917333 0.71599996 2.0092871e-38
0.2249724 0.08656089 0.71518576 2.0276899e-38
0.23484518 0.086216569 0.7145744 2.009323e-38
0.24539687 0.085054927 0.71480936 2.0277617e-38
0.25510833 0.083832562 0.71455073 2.0185417e-38
0.26514927 0.083656721 0.71423084 2.0277267e-38
0.2751455 0.083193071 0.71199983 2.018542e-38
0.28113574 0.08251413 0.71016669 1.9724806e-38
-0.026020955 0.099290483 0.71900004 1.8339721e-38
-0.013966441 0.097939342 0.71771425 1.8523746e-38
-0.0056491783 0.098117419 0.7172727 1.870814e-38
0.0054624253 0.098179668 0.71727276 1.8524111e-38
0.015011069 0.09825056 0.71643752 1.8708498e-38
0.025377933 0.098100632 0.71620679 1.8707414e-38
0.034787159 0.097530261 0.71617115 1.8616302e-38
0.045253031 0.097848848 0.71614701 1.8524464e-38
0.055456769 0.097193606 0.71607888 1.8615575e-38
0.061727181 0.097152323 0.7154001 1.8701698e-38
0.15775031 0.09474697 0.71318758 2.0184714e-38
0.16511315 0.094370916 0.71358323 1.981593e-38
0.17468147 0.093400776 0.71281826 1.8525545e-38
0.1841626 0.091674522 0.71204758 2.027726e-38
0.19445734 0.091394849 0.71238106 2.0184708e-38
0.2046874 0.090868331 0.71137506 2.0001034e-38
0.21442859 0.090060011 0.71100008 2.0092158e-38
0.22345716 0.090060011 0.71100008 2.018542e-38
-0.051681232 0.10520368 0.71271431 1.5300138e-38
-0.045316905 0.10398263 0.71510255 1.7602503e-38
-0.034829646 0.10338231 0.71449989 1.8063844e-38
-0.025029311 0.10296889 0.71471405 1.8523743e-38
-0.015256993 0.10214264 0.71384376 1.8709572e-38
-0.004489488 0.10220283 0.71288478 1.8616666e-38
0.0040395921 0.10174335 0.71290487 1.8524105e-38
0.014699545 0.10224407 0.71139157 1.8708135e-38
0.025036668 0.10149954 0.71050006 1.861631e-38
0.034390099 0.10113639 0.71080005 1.8800329e-38
0.045281027 0.10140688 0.71121436 1.8615933e-38
0.055415716 0.10229047 0.71130013 1.8984727e-38
0.062636308 0.10319429 0.71258843 2.0005354e-38
0.26868859 0.068734288 0.72900003 1.9265975e-38
0.18398574 0.079842865 0.72900003 2.0186149e-38
0.20620286 0.079842865 0.72900003 1.9909185e-38
0.21519387 0.078617588 0.72795004 2.0001393e-38
0.22538137 0.078519672 0.72704995 1.9907758e-38
0.23511356 0.078061536 0.72538102 1.9909922e-38
0.2449806 0.077527232 0.72531044 2.0001755e-38
0.25532004 0.077494435 0.7247144 2.0185428e-38
0.26548976 0.075408079 0.72536182 2.0092507e-38
0.27262321 0.074780598 0.72287512 1.9263109e-38
0.016662858 0.089562863 0.72900003 1.8248248e-38
0.022217145 0.089562863 0.72900003 1.8615587e-38
0.039574288 0.089562863 0.72900003 1.8249312e-38
0.045073073 0.088763542 0.72814292 1.8432617e-38
0.054796055 0.088780969 0.72828585 1.8432279e-38
0.061663341 0.088684306 0.72749996 1.8432281e-38
0.15950002 0.089071438 0.72500002 1.990921e-38
0.16576898 0.086541608 0.72451365 2.0092873e-38
0.17509998 0.084832758 0.72473091 2.0001037e-38
0.18508552 0.084822029 0.72394109 2.0185426e-38
0.19482398 0.085068747 0.72362512 2.0276181e-38
0.20466959 0.083138056 0.72502953 2.0092873e-38
0.2143863 0.082465641 0.72346157 2.0093593e-38
0.22499537 0.081776164 0.72268194 2.0093584e-38
0.23465671 0.081153497 0.72105896 2.0093586e-38
0.24415937 0.081288025 0.72071439 2.0093587e-38
0.25257146 0.080228582 0.72000003 2.0185776e-38
-0.050057147 0.098742865 0.72000003 1.5943717e-38
-0.044464868 0.09688507 0.7247895 1.714261e-38
-0.034984313 0.09698572 0.72473675 1.8248235e-38
-0.025123546 0.096324392 0.72479075 1.8339716e-38
-0.014991427 0.09428335 0.72299999 1.861558e-38
-0.0044087037 0.093496501 0.72458345 1.8524829e-38
0.0046435529 0.0933697 0.72454053 1.8616661e-38
0.014925865 0.093254946 0.72452629 1.8708136e-38
0.024853727 0.093007341 0.72376466 1.8616303e-38
0.035709076 0.092991702 0.72433341 1.8615575e-38
0.044763733 0.09280014 0.72312123 1.8616659e-38
0.054504603 0.092048697 0.7224642 1.8340444e-38
0.061651301 0.091344364 0.7227143 1.8431556e-38
0.15779512 0.091415517 0.72171432 2.0093235e-38
0.16101429 0.090828098 0.72250009 2.0001392e-38
-0.044571437 0.10080002 0.72000003 1.7787982e-38
-0.036342859 0.10080002 0.72000003 1.8065645e-38
-0.029485716 0.10080001 0.72000003 1.8431544e-38
0.23648003 0.069677144 0.73900002 2.0093582e-38
0.24607413 0.069141723 0.73780006 1.9909922e-38
0.25497752 0.068645284 0.73700017 2.000212e-38
0.26399729 0.068354353 0.73572236 1.9262017e-38
0.059120007 0.079530485 0.73900002 1.8524105e-38
0.061065719 0.079315245 0.73700005 1.8616301e-38
0.16628858 0.078965612 0.73811114 2.0184714e-38
0.17496762 0.077920146 0.73585731 2.0093593e-38
0.1848218 0.077157922 0.73581499 2.0186151e-38
0.19535494 0.077091306 0.73680013 1.8894315e-38
0.20515241 0.075800262 0.73475546 1.852805e-38
0.21470553 0.074511923 0.73480648 2.0093587e-38
0.22523053 0.073962383 0.73480004 1.9908839e-38
0.23521407 0.07350006 0.73505563 2.0093589e-38
0.24480009 0.072983056 0.73393559 2.0002116e-38
0.25475547 0.072851658 0.7335161 2.0185786e-38
0.26342598 0.071554236 0.73261118 2.0000671e-38
-0.040696431 0.088409767 0.73675001 1.5116127e-38
-0.034191716 0.087830596 0.7372002 1.7787266e-38
-0.024579095 0.087781653 0.73738104 1.8340434e-38
-0.01474178 0.086701535 0.73706454 1.8340435e-38
-0.0048651062 0.087406099 0.73525012 1.8709215e-38
0.0050083711 0.087092511 0.73442137 1.8616665e-38
0.014399922 0.086527437 0.73516232 1.8523393e-38
0.02480074 0.08585307 0.73540914 1.8431916e-38
0.034870338 0.085949294 0.73602074 1.9170199e-38
0.045076746 0.084262669 0.73482919 1.8247877e-38
0.055366695 0.084024139 0.73453677 1.8432276e-38
0.062070064 0.08423958 0.73331261 1.8524473e-38
0.16623358 0.081778996 0.73394132 2.0185074e-38
0.17474383 0.080061913 0.73100007 1.9818085e-38
0.18449047 0.080061913 0.73100001 2.0185797e-38
0.19546799 0.080814511 0.73200017 2.0278713e-38
0.20129018 0.08009842 0.73133337 2.0736112e-38
-0.042098418 0.09187302 0.73266673 1.6960018e-38
-0.035713263 0.09183386 0.73307705 1.8063484e-38
-0.024909155 0.091471821 0.7326957 1.8340434e-38
-0.014935048 0.090857349 0.73273343 1.8340431e-38
-0.0090504764 0.091200955 0.73100001 1.8891818e-38
0.029240001 0.091200955 0.73100001 1.8617015e-38
0.033287276 0.09111587 0.7323637 1.8339708e-38
0.16598478 0.069100954 0.74800003 2.0644949e-38
0.17663032 0.069085553 0.74783337 2.0186153e-38
0.1862583 0.068636581 0.74760008 2.018579e-38
0.19513923 0.068205982 0.74653345 2.0185781e-38
0.20571831 0.068129338 0.74673337 2.0276897e-38
0.21532299 0.068023369 0.74460709 2.0369094e-38
0.2253584 0.067952804 0.74355173 2.009396e-38
0.23471476 0.066753119 0.74341923 2.0093223e-38
0.24519452 0.065764725 0.74409366 2.0093231e-38
0.25425732 0.064464733 0.74391168 1.9724449e-38
0.2611143 0.065895244 0.74000001 1.926058e-38
-0.010685715 0.079074293 0.74800003 1.8157137e-38
-0.0048351437 0.079340279 0.74650013 1.843156e-38
0.0054118689 0.079127923 0.74646163 1.8432286e-38
0.01515926 0.078950584 0.74611121 1.8523742e-38
0.024819368 0.078713253 0.74461901 1.8523739e-38
0.03476046 0.078738511 0.74485719 1.8432268e-38
0.044725318 0.078087829 0.7454285 1.8524828e-38
0.054892354 0.077348642 0.74557561 1.8616662e-38
0.061067834 0.075757571 0.74655563 1.8801049e-38
0.16645625 0.074449509 0.74349999 2.0276535e-38
0.17452399 0.073153555 0.74327499 2.0001401e-38
0.18474843 0.072348602 0.74286681 2.0185783e-38
0.19464262 0.072129682 0.74156678 2.0277974e-38
0.20459697 0.070936374 0.74206251 2.0185783e-38
0.2143598 0.070930578 0.74066663 2.018578e-38
0.22129525 0.071180955 0.74000001 2.000213e-38
-0.031943575 0.084536195 0.74125004 1.7971283e-38
-0.02466272 0.082943045 0.74367642 1.7603223e-38
-0.01468496 0.081907898 0.74304169 1.8156407e-38
-0.0050657541 0.082160681 0.74212497 1.8708143e-38
0.004480408 0.082162045 0.74280947 1.8340438e-38
0.015017619 0.081985712 0.74212497 1.8523745e-38
0.024145002 0.081251204 0.74024999 1.8339714e-38
0.034558371 0.081110209 0.74057144 1.9169455e-38
0.043342862 0.081047624 0.74000001 1.8432624e-38
0.050742861 0.081047624 0.74000001 1.8524848e-38
0.20574287 0.059918098 0.75800002 2.0369817e-38
0.21599601 0.059405912 0.75699997 2.0370531e-38
0.22493622 0.059117157 0.75700015 2.0277618e-38
