# .PCD v0.7 - Point Cloud Data file format
VERSION 0.7
FIELDS x y z rgb
SIZE 4 4 4 4
TYPE F F F F
COUNT 1 1 1 1
WIDTH 250
HEIGHT 1
VIEWPOINT 0 0 0 1 0 0 0
POINTS 250
DATA ascii
-0.12398001 0.16855431 1.0970001 2.2098799e-39
-0.11630058 0.1682909 1.0962001 9.6867377e-39
-0.13155086 0.17212458 1.098 4.2399018e-39
-0.1249837 0.17352046 1.0953999 4.6072381e-39
-0.11846509 0.17335463 1.0943335 3.7775083e-39
-0.14434606 0.16582191 1.1090002 4.0544231e-39
-0.13536505 0.16659786 1.105611 3.5020242e-39
-0.12527111 0.16526924 1.1053336 1.0516144e-38
-0.11607703 0.16382888 1.1037143 2.3416971e-38
-0.14447311 0.17030311 1.1072501 5.0667687e-39
-0.13761336 0.17227715 1.103 4.6994296e-39
-0.12010287 0.15836573 1.1160001 2.341769e-38
-0.16332573 0.16403431 1.1160001 4.4239343e-39
-0.15441495 0.16535342 1.1146154 4.6994394e-39
-0.14562772 0.16239686 1.1145 3.8690187e-39
-0.13564178 0.16165608 1.1148751 9.9694651e-39
-0.12467684 0.16124193 1.1146667 2.3325136e-38
-0.11520604 0.1619013 1.1143334 2.341769e-38
-0.17388001 0.14919335 1.1270001 3.1285922e-39
-0.17453414 0.15525712 1.12428 3.8693284e-39
-0.16488403 0.1553085 1.1230526 3.2261618e-39
-0.15485483 0.15699176 1.1233126 5.072636e-39
-0.14508374 0.15725899 1.1233078 1.4851115e-38
-0.13499622 0.15810172 1.1232001 2.2773045e-38
-0.12497692 0.15629402 1.1227059 2.3233659e-38
-0.11448301 0.15620816 1.1234502 2.341769e-38
-0.10613345 0.15616138 1.1256666 2.0835859e-38
-0.17413642 0.16270614 1.1247779 4.515397e-39
-0.16438517 0.16272596 1.12 4.4239301e-39
-0.15537779 0.16142224 1.12 3.5023437e-39
-0.14826667 0.16106668 1.12 2.484945e-39
-0.13226667 0.16106668 1.12 2.0386401e-38
-0.11200001 0.16106668 1.12 2.341769e-38
-0.10986667 0.16213334 1.12 2.341769e-38
-0.20339429 0.14822096 1.136 4.0519078e-39
-0.19255684 0.14775938 1.138 3.5008962e-39
-0.18513982 0.14724231 1.1368001 2.8537808e-39
-0.1756597 0.1473238 1.1346667 7.4744335e-39
-0.16617347 0.14888203 1.1348751 1.7336429e-38
-0.15498479 0.14848192 1.138 2.3417328e-38
-0.14523049 0.14848192 1.138 2.2493927e-38
-0.13601811 0.14848192 1.138 2.1018823e-38
-0.1257219 0.14848192 1.138 2.1296121e-38
-0.11488381 0.14848192 1.138 2.3231488e-38
-0.10621335 0.14848192 1.138 2.1110288e-38
-0.20375621 0.15064953 1.138 4.05084e-39
-0.1948559 0.1511943 1.1366668 3.9604296e-39
-0.18500562 0.15383062 1.1335 4.2370249e-39
-0.16152744 0.15160516 1.1322001 1.4297946e-38
-0.15520287 0.1517843 1.133 2.0471417e-38
-0.14507614 0.15255702 1.1328667 2.3049989e-38
-0.1354126 0.15305534 1.1344446 2.3049629e-38
-0.12517373 0.15154667 1.1350001 2.2865957e-38
-0.11499153 0.15119979 1.1331111 2.3325854e-38
-0.10482953 0.15158176 1.1328335 1.9360026e-38
-0.098626673 0.15064953 1.138 1.742752e-38
-0.18337269 0.16370478 1.1333333 4.4232098e-39
-0.17804097 0.1665343 1.1330001 4.6994324e-39
-0.2045162 0.14532492 1.1448573 3.6852888e-39
-0.19568351 0.1458981 1.1446668 3.407665e-39
-0.1847219 0.14402096 1.1446667 1.0058419e-38
-0.1732381 0.14599429 1.1440001 2.1578107e-38
-0.16560762 0.14599429 1.1440001 2.3141823e-38
-0.15552954 0.14682858 1.1420001 2.2219517e-38
-0.14401019 0.14655049 1.1426668 1.9911749e-38
-0.13495387 0.14632867 1.1437778 1.9083446e-38
-0.12435113 0.14719112 1.1420002 1.9912469e-38
-0.11602326 0.14649487 1.1428002 1.9546567e-38
-0.10483302 0.14727685 1.1426668 1.9546931e-38
-0.096295238 0.14789651 1.1446668 1.6966911e-38
-0.19754858 0.15170859 1.146 3.8685927e-39
-0.20277409 0.13709325 1.1536666 9.8696842e-39
-0.19543497 0.13511725 1.1534998 2.0746919e-38
-0.18582314 0.13634574 1.1531051 2.3141825e-38
-0.17593746 0.13957462 1.1570001 2.3141465e-38
-0.16466446 0.1382577 1.1552222 1.8901557e-38
-0.15597449 0.13857125 1.1566 1.8717895e-38
-0.14469202 0.1394044 1.1562001 1.9085605e-38
-0.1366362 0.13994192 1.1570001 1.8900857e-38
-0.1145981 0.13994192 1.1570001 1.816293e-38
-0.094763815 0.13994192 1.1570001 1.9456536e-38
-0.20225398 0.14274603 1.1500001 1.9354146e-39
-0.19568256 0.14201587 1.1500001 4.7056373e-39
-0.18436509 0.1416508 1.1500001 2.1300444e-38
-0.17491716 0.14329588 1.1515 2.2958152e-38
-0.16458935 0.14289276 1.1506001 2.194256e-38
-0.15461546 0.14364897 1.1514 1.9269275e-38
-0.14500728 0.14341109 1.151091 1.8625349e-38
-0.13447575 0.1428472 1.1513637 1.8624987e-38
-0.12475093 0.14366727 1.152923 1.7795585e-38
-0.11452529 0.14372282 1.1519998 1.7979255e-38
-0.10504104 0.14374506 1.1535383 1.9546213e-38
-0.095095575 0.1442863 1.1530001 1.7332812e-38
-0.08925429 0.14214572 1.1570001 1.6227192e-38
-0.082015567 0.11838445 1.169 2.2864153e-38
-0.077376671 0.11857001 1.169 2.1852514e-38
-0.19296555 0.1290143 1.1658001 2.341769e-38
-0.18567067 0.1283004 1.1674 2.341733e-38
-0.17924668 0.12803334 1.169 2.341769e-38
-0.083685562 0.12525001 1.1689999 2.2218789e-38
-0.075563379 0.12405901 1.1679333 2.1389386e-38
-0.068498105 0.12403524 1.1663334 1.9913184e-38
-0.19350001 0.13158001 1.161 2.341769e-38
-0.18328011 0.13256817 1.1632223 2.341769e-38
-0.17474401 0.13389993 1.1646364 2.1757816e-38
-0.1655481 0.13410145 1.1653334 1.8717546e-38
-0.15485676 0.13440493 1.165 1.9085601e-38
-0.14516637 0.13530436 1.1645557 1.9177442e-38
-0.13467143 0.13564037 1.1662498 1.9177794e-38
-0.12502952 0.13600723 1.1666472 1.8808655e-38
-0.1151456 0.13569941 1.1667501 1.853207e-38
-0.10505155 0.13578604 1.1665558 1.7979255e-38
-0.095060609 0.13466872 1.1656317 1.9454374e-38
-0.08602225 0.13370101 1.1659411 2.1298274e-38
-0.079046674 0.13026001 1.169 2.129576e-38
-0.13158001 0.14042573 1.161 1.8901204e-38
-0.12494572 0.14042573 1.1610001 1.8624261e-38
-0.11499429 0.14042573 1.161 1.816293e-38
-0.10504287 0.14042573 1.1610001 1.8254761e-38
-0.095091432 0.14042573 1.161 1.8997699e-38
-0.089562863 0.14042573 1.161 1.7879866e-38
-0.085147351 0.11709513 1.1741431 2.2773387e-38
-0.075021282 0.11831143 1.1756668 2.1112071e-38
-0.068378098 0.11994191 1.177 1.9174164e-38
-0.18296143 0.12533143 1.1750001 2.3417689e-38
-0.1752286 0.12694971 1.1734003 2.1296843e-38
-0.16478002 0.12778859 1.177 1.8809014e-38
-0.15543875 0.12816224 1.177 1.8900848e-38
-0.14460288 0.12890953 1.177 1.8438802e-38
-0.13419944 0.12837353 1.1762002 1.8901207e-38
-0.12621924 0.12846115 1.177 1.8900489e-38
-0.11545811 0.12890953 1.177 1.8992684e-38
-0.10527715 0.1288 1.1760001 1.8625339e-38
-0.094137281 0.12801865 1.1747146 1.9546574e-38
-0.08784619 0.12365381 1.1750001 2.2680128e-38
-0.070380002 0.12176858 1.1730001 2.0652173e-38
-0.16533715 0.13070573 1.1730001 1.8994484e-38
-0.15528286 0.13070573 1.1730002 1.90856e-38
-0.14522859 0.13070573 1.1730001 1.8993407e-38
-0.13581267 0.13134409 1.1730002 1.9177794e-38
-0.12534344 0.13115259 1.1730002 1.8808651e-38
-0.1148015 0.13140777 1.1735716 1.8993404e-38
-0.10501143 0.13070573 1.1730001 1.862426e-38
-0.094957158 0.13070574 1.1730001 1.899412e-38
-0.16759239 0.10984096 1.189 2.3325492e-38
-0.10413668 0.10866239 1.1885 2.2772654e-38
-0.09551172 0.10876478 1.1878573 2.1204628e-38
-0.0894581 0.10984096 1.189 2.0467399e-38
-0.17328079 0.11623941 1.1850001 2.3233299e-38
-0.1655746 0.11565606 1.1872859 2.1665979e-38
-0.1560421 0.11844706 1.189 1.8992684e-38
-0.11482344 0.11844706 1.189 1.871682e-38
-0.10461599 0.11553737 1.1867777 2.1021692e-38
-0.09474168 0.11503977 1.1842501 2.2957788e-38
-0.086768791 0.11381219 1.1832224 2.1848189e-38
-0.074607223 0.11683063 1.1844287 2.0188316e-38
-0.17515613 0.12239455 1.181 2.2126958e-38
-0.1654505 0.12268058 1.1818 1.9177071e-38
-0.15435691 0.12344411 1.1840588 1.86257e-38
-0.1447593 0.12431132 1.1847647 1.8349477e-38
-0.13484009 0.12414611 1.1858001 1.8441672e-38
-0.12450334 0.12449763 1.18575 1.8716816e-38
-0.11518692 0.12421501 1.18575 1.880973e-38
-0.10488705 0.12405562 1.1841999 1.8532071e-38
-0.094872385 0.12333075 1.1818571 2.0561439e-38
-0.070860006 0.12034953 1.1810001 2.0097554e-38
-0.12444311 0.10678549 1.1960001 2.286596e-38
-0.1148835 0.10578126 1.1943334 2.3048899e-38
-0.10542077 0.10542228 1.1954001 2.1111343e-38
-0.092340007 0.10830001 1.197 2.0926233e-38
-0.16221403 0.11340042 1.1958573 2.1575226e-38
-0.15486732 0.11500921 1.1956667 2.0007906e-38
-0.14506997 0.11825556 1.1952225 1.8809367e-38
-0.13497667 0.11874501 1.196 1.8625698e-38
-0.12525503 0.11500343 1.1956003 1.9362184e-38
-0.11515578 0.11326214 1.1932224 2.0377052e-38
-0.083621912 0.11232705 1.1962001 2.0280878e-38
-0.075534932 0.11311176 1.1956668 2.0282671e-38
-0.13634285 0.12157239 1.1930001 1.8533149e-38
-0.12611715 0.12157239 1.1930001 1.8532429e-38
-0.13514857 0.099160008 1.2060001 2.3324771e-38
-0.12505844 0.099815249 1.2046667 2.2035805e-38
-0.11466858 0.099760011 1.204 2.0924805e-38
-0.16217461 0.10798921 1.202 2.3139664e-38
-0.15749754 0.10797981 1.2036 2.2773042e-38
-0.13406478 0.10628533 1.2052001 2.2957794e-38
-0.12619367 0.10326964 1.2033334 2.3325123e-38
-0.1144762 0.10188381 1.202 2.1202473e-38
-0.10778476 0.10320191 1.204 2.064786e-38
-0.094460331 0.10708064 1.2046667 2.0835129e-38
-0.085683435 0.10819544 1.2060002 2.1297193e-38
-0.07568191 0.10893334 1.204 2.1204639e-38
-0.16141143 0.11104191 1.202 2.3048547e-38
-0.15393107 0.11172154 1.2044001 2.221771e-38
-0.14539303 0.1140597 1.2036668 1.9730609e-38
-0.1353455 0.11382815 1.2035385 1.98228e-38
-0.082422867 0.11104191 1.202 2.0834059e-38
-0.07521271 0.11301398 1.2026668 2.0467783e-38
-0.15208477 0.098680958 1.2190001 2.341768e-38
-0.14521752 0.096426293 1.2140001 2.2956709e-38
-0.13502073 0.095977396 1.21175 2.1757799e-38
-0.12744048 0.098478578 1.2165 2.0926967e-38
-0.11841715 0.098680958 1.2190001 2.0560337e-38
-0.091715246 0.098680958 1.2190001 2.2402826e-38
-0.088232383 0.098680958 1.2190001 2.2311348e-38
-0.15384436 0.10525606 1.2145715 2.2772325e-38
-0.14562884 0.1051693 1.2135501 2.2680128e-38
-0.13687725 0.10333017 1.21 2.3141103e-38
-0.12100001 0.10025715 1.21 2.1664479e-38
-0.11561906 0.10058858 1.2140001 2.1018783e-38
-0.10437739 0.10495786 1.2177501 2.0743659e-38
-0.094168693 0.10369737 1.2173333 2.2034756e-38
-0.085904531 0.10458055 1.2134167 2.19422e-38
-0.079003818 0.1072581 1.2110001 2.1665973e-38
-0.14520001 0.11178096 1.21 2.1574866e-38
-0.10750858 0.080631435 1.2270001 2.1018073e-38
-0.094654292 0.089980006 1.2270001 2.2587558e-38
-0.13204858 0.094654292 1.2270001 1.9914975e-38
-0.1258162 0.097380958 1.2270002 2.0558182e-38
-0.11335143 0.099328578 1.2270001 2.111245e-38
-0.10260059 0.096524 1.2270001 2.2587572e-38
-0.095954224 0.095483243 1.2256668 2.2680126e-38
-0.089686669 0.095510483 1.223 2.2681564e-38
-0.11101429 0.10166572 1.2270001 2.1112442e-38
-0.10452531 0.10252205 1.225286 2.1574502e-38
-0.098228268 0.1021108 1.223 2.2035835e-38
-0.13066286 0.088285722 1.2360001 2.2773048e-38
-0.12467716 0.087039061 1.2350001 2.2679766e-38
-0.11476953 0.085943907 1.2330911 2.2403532e-38
-0.10567898 0.086232394 1.234182 2.2680114e-38
-0.095799737 0.087073758 1.2331431 2.1849623e-38
-0.13228801 0.091871999 1.2336 2.129719e-38
-0.12448818 0.093448177 1.2331431 2.203512e-38
-0.11510405 0.093958825 1.2332501 2.2588289e-38
-0.10648407 0.094433792 1.2322669 2.2771962e-38
-0.099733338 0.090346672 1.2320001 2.2772682e-38
-0.10552858 0.084185719 1.245 2.1484777e-38
-0.098730482 0.084456198 1.2490001 2.018936e-38
-0.10270858 0.08479429 1.2540001 2.0282262e-38
-0.09712287 0.082734302 1.2590001 1.9084155e-38
-0.10305016 0.076885082 1.2680001 2.2771959e-38
-0.096206993 0.077690169 1.268 2.323222e-38
-0.10433315 0.082164392 1.2650001 1.9175253e-38
-0.097685412 0.080804132 1.2663335 2.1208247e-38
-0.10297143 0.076320007 1.2720001 2.1850731e-38
-0.097156577 0.073412582 1.2720002 2.3141465e-38
-0.11067334 0.081484765 1.2770001 1.9724452e-38
-0.10781715 0.081165716 1.2720001 1.9811993e-38
-0.094380006 0.069865718 1.2870001 2.341769e-38
-0.094380006 0.072317146 1.2870001 2.341769e-38
