# .PCD v0.7 - Point Cloud Data file format
VERSION 0.7
FIELDS x y z rgb
SIZE 4 4 4 4
TYPE F F F F
COUNT 1 1 1 1
WIDTH 200
HEIGHT 1
VIEWPOINT 0 0 0 1 0 0 0
POINTS 200
DATA ascii
-0.11424909 -0.26545513 1.2060001 2.6740334e-39
-0.11217716 -0.25574857 1.2060002 2.3985493e-39
-0.094037145 -0.28211144 1.2190001 9.8577563e-39
-0.11377117 -0.27527678 1.2137144 3.0475173e-39
-0.10496697 -0.27395996 1.2153077 9.4939807e-39
-0.095049001 -0.27470183 1.2170501 1.0506325e-38
-0.087487228 -0.27172098 1.2155716 1.0689997e-38
-0.1047678 -0.26507974 1.2125456 9.3095894e-39
-0.096359059 -0.26543593 1.219 1.0413769e-38
-0.08939334 -0.26818001 1.2190001 1.0873305e-38
-0.11495 -0.25381193 1.21 2.7665976e-39
-0.10533793 -0.25470293 1.2120434 8.0195681e-39
-0.098216578 -0.25610611 1.2190001 9.6769202e-39
-0.11140834 -0.24475263 1.21225 3.5927597e-39
-0.10617103 -0.24641974 1.2155714 6.0827424e-39
-0.11322572 -0.28131971 1.2256669 6.9229988e-39
-0.10383587 -0.28233397 1.2250001 1.1144204e-38
-0.097170174 -0.28529084 1.2243335 1.1513016e-38
-0.10599334 -0.2783781 1.223 9.6758692e-39
-0.092842869 -0.26337782 1.2236668 1.0414145e-38
-0.086857975 -0.2646639 1.2262501 1.0137184e-38
-0.095571443 -0.25501677 1.2238002 8.9393523e-39
-0.089980006 -0.25825429 1.2270001 8.7560359e-39
-0.10324906 -0.2455824 1.2250001 7.7408007e-39
-0.099733338 -0.29216 1.2320001 2.0382789e-38
-0.11536001 -0.28604573 1.2360001 7.2064184e-39
-0.10571429 -0.28699559 1.2333335 1.5309184e-38
-0.099733338 -0.28981334 1.2320001 1.7238108e-38
-0.08330667 -0.27104002 1.2320001 1.0874027e-38
-0.081898674 -0.26493868 1.2320002 9.3074258e-39
-0.093116738 -0.25417581 1.2331431 8.0166674e-39
-0.085806996 -0.25742096 1.2342224 8.2911117e-39
-0.10241143 -0.24602288 1.2360001 8.3854485e-39
-0.099733338 -0.24992001 1.2320001 8.2932739e-39
-0.098730482 -0.30094954 1.2490001 2.2956715e-38
-0.12014192 -0.29619145 1.2490001 9.2327352e-41
-0.11499953 -0.29314622 1.247 1.4293606e-38
-0.10476977 -0.29506597 1.243 2.2772319e-38
-0.11573334 -0.28697145 1.24 8.6585405e-39
-0.10982858 -0.28933334 1.24 2.0197328e-38
-0.095106989 -0.25214574 1.243 8.0177618e-39
-0.10373548 -0.24657263 1.24475 7.7411623e-39
-0.098730482 -0.2486105 1.2490001 8.4780183e-39
-0.12110382 -0.30096096 1.2590001 1.0525013e-40
-0.11870572 -0.30096096 1.2590001 1.0154202e-38
-0.10520549 -0.30245548 1.2552501 2.2954913e-38
-0.099520959 -0.30575716 1.2590001 2.2863083e-38
-0.11465144 -0.29916859 1.2540001 1.8624631e-38
-0.10868001 -0.29976574 1.2540001 2.3414809e-38
-0.11208779 -0.24331829 1.2565001 3.8682676e-39
-0.10655393 -0.24453942 1.2571249 7.2819694e-39
-0.11281715 -0.23505065 1.2582858 3.5909534e-39
-0.1079143 -0.23741144 1.2590001 7.0049999e-39
-0.11390953 -0.22901811 1.2590001 3.038165e-39
-0.10023239 -0.31035811 1.268 2.2679768e-38
-0.12196953 -0.30552763 1.268 9.2345569e-41
-0.11493544 -0.30528781 1.2650001 2.0102263e-38
-0.10595977 -0.30703217 1.26425 2.2587572e-38
-0.09476649 -0.25440574 1.2660002 8.3858282e-39
-0.088156193 -0.2596381 1.268 8.2936172e-39
-0.10298668 -0.24362805 1.2637144 8.4790664e-39
-0.098077498 -0.24580166 1.2657273 8.8467994e-39
-0.11186572 -0.23455715 1.263 4.2359529e-39
-0.10382241 -0.23465368 1.265059 8.5705516e-39
-0.097817153 -0.23790097 1.268 9.6761705e-39
-0.11329239 -0.22537477 1.2654999 2.9492092e-39
-0.10700873 -0.22691543 1.2668461 7.4642405e-39
-0.11230858 -0.21737145 1.268 3.8664725e-39
-0.10627048 -0.21616383 1.268 6.1842847e-39
-0.13013239 -0.31499335 1.2770001 1.6692379e-39
-0.12607843 -0.31256101 1.2770002 1.2961899e-39
-0.11350553 -0.3128027 1.276 2.2771959e-38
-0.10450053 -0.31431139 1.2742225 2.2403181e-38
-0.11750858 -0.3089143 1.2720001 1.9273228e-38
-0.090857148 -0.26045716 1.2720001 7.9259249e-39
-0.084505722 -0.26160607 1.2736667 8.478363e-39
-0.092241637 -0.25388086 1.2720002 8.6624011e-39
-0.087590486 -0.25549063 1.2748573 8.9386181e-39
-0.093257159 -0.24490027 1.2747275 9.4903681e-39
-0.088781908 -0.24810287 1.2770001 9.4907254e-39
-0.095850483 -0.23538665 1.2740003 9.9524183e-39
-0.11145143 -0.22169144 1.2720001 4.2349089e-39
-0.10252639 -0.22371593 1.2725003 9.769483e-39
-0.097706273 -0.22578195 1.2755716 1.0413047e-38
-0.11099416 -0.21419445 1.2727145 3.86932e-39
-0.10446137 -0.21437924 1.2735626 8.4808951e-39
-0.098511443 -0.21526574 1.2770002 1.0964772e-38
-0.11067334 -0.20432001 1.2770001 3.2253883e-39
-0.10615607 -0.20623118 1.2770001 6.5451793e-39
-0.11067334 -0.18850954 1.2770001 3.1346893e-39
-0.12306643 -0.33368215 1.28575 1.6774553e-38
-0.11776923 -0.33212227 1.2836668 1.8060263e-38
-0.13351795 -0.32337987 1.2861668 3.1335766e-39
-0.12436835 -0.32491425 1.2865833 1.4387982e-38
-0.1151639 -0.32495046 1.2836667 2.2035102e-38
-0.10744381 -0.32233143 1.2820001 2.2033684e-38
-0.13186286 -0.3186686 1.2820001 2.3999576e-39
-0.12457415 -0.31623369 1.2844999 6.6442511e-39
-0.11535743 -0.31779966 1.2827144 2.2771958e-38
-0.10744381 -0.3186686 1.2820001 2.2310619e-38
-0.082414284 -0.26189429 1.2820001 8.5702251e-39
-0.079361908 -0.26128381 1.2820001 8.6627711e-39
-0.084081806 -0.25415102 1.2836666 9.3066915e-39
-0.077985562 -0.25559828 1.2861668 9.398527e-39
-0.091571435 -0.24052763 1.2820001 1.0135731e-38
-0.086646579 -0.24437526 1.2847272 1.0043187e-38
-0.092623502 -0.23421845 1.2853335 1.0229014e-38
-0.089477152 -0.23533717 1.2870001 1.0412692e-38
-0.095700398 -0.22542612 1.2850002 1.0504882e-38
-0.10133906 -0.21122478 1.2820001 1.1149164e-38
-0.096264914 -0.21472152 1.284143 1.1056256e-38
-0.10386879 -0.20380339 1.2831112 9.1241037e-39
-0.098177157 -0.206329 1.2862859 1.0874028e-38
-0.11110667 -0.19535239 1.2820001 3.1339592e-39
-0.10584797 -0.19629817 1.2859285 6.9124904e-39
-0.099282861 -0.19979145 1.2870001 1.0690726e-38
-0.11139556 -0.18484001 1.2853334 2.4907562e-39
-0.10753296 -0.18836725 1.2860001 4.7012597e-39
-0.11154 -0.17160001 1.2870001 3.2257835e-39
-0.10725001 -0.17098716 1.2870001 4.1473628e-39
-0.11110667 -0.16727048 1.2820001 3.1350115e-39
-0.10464323 -0.16614965 1.285125 4.9778508e-39
-0.13618287 -0.33284575 1.296 3.5966974e-39
-0.1267243 -0.33218652 1.2918333 1.5955973e-38
-0.13330287 -0.32955432 1.296 3.133941e-39
-0.12910001 -0.32828289 1.291 1.2073167e-40
-0.077460006 -0.26188859 1.291 8.8471539e-39
-0.082378104 -0.2520524 1.291 9.7673165e-39
-0.076030836 -0.25487873 1.2928751 9.6751167e-39
-0.082073025 -0.24416511 1.2926667 1.0227943e-38
-0.078764521 -0.24614051 1.2922499 1.0228299e-38
-0.084033459 -0.23517713 1.2928751 1.0596364e-38
-0.092529722 -0.22369885 1.2920002 1.0872578e-38
-0.087249331 -0.22724898 1.2939999 1.06889e-38
-0.092056938 -0.21380405 1.2926666 1.1148803e-38
-0.09428867 -0.20384489 1.2924999 1.0966217e-38
-0.10205048 -0.19303524 1.2910001 1.0415929e-38
-0.097456805 -0.194804 1.2923636 1.1333926e-38
-0.10570368 -0.18458588 1.2940769 6.9110569e-39
-0.098742865 -0.18884572 1.296 1.1609423e-38
-0.11188667 -0.17582192 1.291 3.2268611e-39
-0.10522392 -0.17578882 1.2922502 5.9955788e-39
-0.099025726 -0.1729908 1.2943333 1.1610861e-38
-0.099591434 -0.16844477 1.291 1.1794886e-38
-0.13308764 -0.34204763 1.3060001 6.3717195e-39
-0.13466112 -0.33644432 1.305167 4.8828119e-39
-0.071933806 -0.253005 1.3022501 1.0319044e-38
-0.065793343 -0.25169671 1.3035001 1.0963707e-38
-0.058459051 -0.25000572 1.3060001 1.0873305e-38
-0.073834158 -0.2438727 1.3045715 1.0689262e-38
-0.067580327 -0.2466889 1.3060001 1.0872592e-38
-0.080538101 -0.23170193 1.3010001 1.09655e-38
-0.07577239 -0.23436382 1.3043334 1.1149527e-38
-0.08291366 -0.22372495 1.302667 1.0965857e-38
-0.077895403 -0.22539732 1.3051668 1.1241366e-38
-0.090450481 -0.21435525 1.3010001 1.1147731e-38
-0.085025534 -0.21501221 1.3040001 1.1149162e-38
-0.078360006 -0.21766669 1.3060001 1.1425047e-38
-0.090520017 -0.20459621 1.3020002 1.1058411e-38
-0.087147765 -0.20571078 1.3045717 1.1150241e-38
-0.092431337 -0.19430564 1.3045 1.1242089e-38
-0.08831048 -0.19776572 1.3060001 1.1426835e-38
-0.10098239 -0.1846181 1.3010001 1.1241731e-38
-0.095925406 -0.18536541 1.3043333 1.1333206e-38
-0.083335243 -0.18366921 1.3060001 1.1426834e-38
-0.10036287 -0.17842287 1.3010001 1.1610863e-38
-0.097180963 -0.17823684 1.3026669 1.1426111e-38
-0.063677147 -0.25096288 1.3110001 1.0964805e-38
-0.064253405 -0.24404773 1.311 1.0873664e-38
-0.057673883 -0.24444887 1.3124287 1.0874017e-38
-0.071168579 -0.23473145 1.3110001 1.1426115e-38
-0.065941036 -0.23557052 1.314077 1.1517597e-38
-0.058906671 -0.23938668 1.3160001 1.142646e-38
-0.073488928 -0.22455561 1.3119091 1.1425383e-38
-0.068379626 -0.22617772 1.3150001 1.1426119e-38
-0.081157148 -0.21225715 1.3110001 1.1334267e-38
-0.075635068 -0.21577033 1.3137274 1.1334281e-38
-0.068933338 -0.21808001 1.3160001 1.1518315e-38
-0.083497435 -0.20424946 1.3125 1.1517949e-38
-0.078960001 -0.20680003 1.3160002 1.1425759e-38
-0.066426672 -0.20554668 1.3160001 1.1795609e-38
-0.08469443 -0.19462779 1.3116668 1.1426113e-38
-0.078333333 -0.19677335 1.3160001 1.1611221e-38
-0.092572659 -0.1842535 1.3110001 1.1242091e-38
-0.086706355 -0.18575969 1.311 1.1517952e-38
-0.092394292 -0.17854573 1.3110001 1.1334632e-38
-0.08864858 -0.17854573 1.3110001 1.1426831e-38
-0.056614291 -0.2402962 1.3210001 1.1426828e-38
-0.062198479 -0.23342517 1.3220001 1.1518675e-38
-0.056734018 -0.23504832 1.3238573 1.1518309e-38
-0.064322382 -0.22450607 1.3243335 1.1610498e-38
-0.055565715 -0.22857715 1.3260001 1.1517971e-38
-0.07350871 -0.21225867 1.3210001 1.1058781e-38
-0.065264575 -0.21395031 1.3230002 1.170234e-38
-0.074926905 -0.20421281 1.3222501 1.1334288e-38
-0.06751778 -0.206747 1.3210001 1.1610863e-38
-0.074508578 -0.19826858 1.3260001 1.1794548e-38
-0.057676673 -0.23387574 1.3310001 1.1610147e-38
-0.058733016 -0.22563621 1.3310002 1.1518669e-38
-0.059578098 -0.21929811 1.3310001 1.170271e-38
