# .PCD v0.7 - Point Cloud Data file format
VERSION 0.7
FIELDS x y z rgb
SIZE 4 4 4 4
TYPE F F F F
COUNT 1 1 1 1
WIDTH 345
HEIGHT 1
VIEWPOINT 0 0 0 1 0 0 0
POINTS 345
DATA ascii
-0.36520004 -0.80645722 1.9800003 2.028376e-38
-0.37373716 -0.81197721 1.9920001 1.4751688e-38
-0.36488384 -0.81260961 1.9920001 2.01912e-38
-0.35476574 -0.81197715 1.9920003 2.0558901e-38
-0.34591243 -0.81260961 1.9920001 2.0558174e-38
-0.32694098 -0.81260961 1.9920001 2.0649997e-38
-0.31555814 -0.81260961 1.9920001 2.0464899e-38
-0.30733716 -0.81387436 1.9920001 2.0373425e-38
-0.29405716 -0.81197721 1.9920001 2.0466334e-38
-0.28267431 -0.81197721 1.9920001 2.0466331e-38
-0.36614859 -0.80438864 1.9920003 1.964091e-38
-0.35856003 -0.80628574 1.9920001 2.0467067e-38
-0.32820573 -0.80628574 1.9920001 2.0373791e-38
-0.31682289 -0.80628574 1.9920001 2.028159e-38
-0.29405716 -0.80438864 1.9920001 2.00972e-38
-0.28267431 -0.80249149 1.9920001 2.0005726e-38
-0.36804575 -0.79869717 1.9920001 1.7891731e-38
-0.35481715 -0.81073815 2.003 2.046671e-38
-0.34400731 -0.81328166 2.0030003 2.0557809e-38
-0.33574101 -0.81455338 2.0030003 2.0466696e-38
-0.32391372 -0.81379032 2.003 2.0464898e-38
-0.31284955 -0.81264579 2.003 2.0281591e-38
-0.30483755 -0.81379032 2.003 2.0373784e-38
-0.29568097 -0.81455338 2.0030003 2.0373785e-38
-0.28423527 -0.81400836 2.0030003 2.0374143e-38
-0.27469718 -0.81455338 2.0030003 2.0465261e-38
-0.26515907 -0.81455332 2.003 2.0465631e-38
-0.25562096 -0.81455338 2.0030003 2.0465266e-38
-0.24989811 -0.81455338 2.003 2.0465263e-38
-0.23845239 -0.81073815 2.003 2.0465258e-38
-0.36181182 -0.80437946 2.003 2.0465629e-38
-0.35481715 -0.80501533 2.003 2.019012e-38
-0.34527907 -0.80501533 2.0030003 2.0557098e-38
-0.3338334 -0.80501533 2.0030003 2.0189398e-38
-0.32429525 -0.80501533 2.003 2.0097917e-38
-0.31475717 -0.80501527 2.0030003 2.0097207e-38
-0.30521905 -0.80501533 2.003 2.0097204e-38
-0.29568097 -0.8046338 2.003 2.0004285e-38
-0.28423527 -0.8046338 2.003 2.0188674e-38
-0.27469715 -0.80501533 2.003 2.0280869e-38
-0.26515907 -0.80501533 2.0030003 2.000501e-38
-0.25371334 -0.80692291 2.003 2.0189758e-38
-0.24531983 -0.8046338 2.003 2.0189758e-38
-0.23845239 -0.80692291 2.003 2.0373778e-38
-0.37198573 -0.79738486 2.003 1.2276825e-38
-0.36381024 -0.79656732 2.0030003 2.0467058e-38
-0.35519871 -0.79624027 2.003 1.9914243e-38
-0.34582412 -0.79656738 2.0030003 2.0096844e-38
-0.33287954 -0.79833865 2.003 2.0097196e-38
-0.32429525 -0.79547727 2.0030003 2.0005349e-38
-0.31475717 -0.79547727 2.003 2.0005367e-38
-0.30560061 -0.79624027 2.003 2.0188674e-38
-0.29695272 -0.796749 2.003 2.0189402e-38
-0.28487116 -0.796749 2.0030003 2.0281597e-38
-0.27469715 -0.79929245 2.003 2.0281228e-38
-0.26515907 -0.79929245 2.003 1.9821696e-38
-0.24481115 -0.796749 2.003 2.0189756e-38
-0.23845239 -0.79929245 2.003 2.0189751e-38
-0.3567248 -0.7859391 2.003 2.0189369e-38
-0.34814048 -0.7849853 2.003 1.9822052e-38
-0.32620287 -0.78403151 2.003 1.9821329e-38
-0.31584725 -0.78457654 2.0030003 2.0003921e-38
-0.3071267 -0.78403151 2.003 1.9818082e-38
-0.28423527 -0.78784674 2.003 2.0098645e-38
-0.3490943 -0.77640098 2.003 2.0005e-38
-0.31475717 -0.77258575 2.003 2.0648939e-38
-0.25139526 -0.82327145 2.0150001 2.0649293e-38
-0.2456381 -0.82327145 2.0150001 2.0557818e-38
-0.25395399 -0.81303662 2.0150001 2.0189039e-38
-0.2456381 -0.8175143 2.0150001 2.0373427e-38
-0.3377524 -0.8002429 2.0150001 2.00972e-38
-0.30129048 -0.80408102 2.0150001 2.0189038e-38
-0.2936143 -0.80216193 2.0150001 2.0188682e-38
-0.28210002 -0.8002429 2.0150001 2.0468157e-38
-0.27442384 -0.8002429 2.0150001 2.009756e-38
-0.26482856 -0.8002429 2.0150001 2.000537e-38
-0.25632995 -0.80408102 2.0150003 2.0098277e-38
-0.24755716 -0.80216193 2.0150001 2.028231e-38
-0.23988096 -0.8002429 2.0150001 2.0190114e-38
-0.37037623 -0.79640484 2.0150001 2.1108454e-38
-0.36525875 -0.79384613 2.0150001 2.0375217e-38
-0.35502383 -0.79448581 2.0150001 1.9913522e-38
-0.34478891 -0.79512548 2.0150001 2.0004647e-38
-0.33583337 -0.79448581 2.0150003 2.0097197e-38
-0.32431906 -0.79256672 2.0150001 1.9820981e-38
-0.30320954 -0.79448581 2.0150001 2.0004282e-38
-0.29553336 -0.79448581 2.0150001 2.000501e-38
-0.28593811 -0.79448581 2.0150001 2.0099005e-38
-0.27442384 -0.79448581 2.0150003 1.9726632e-38
-0.26482856 -0.79448581 2.0150001 2.0004647e-38
-0.25523335 -0.79448581 2.0150003 2.0188674e-38
-0.2456381 -0.79448581 2.0150001 2.0097204e-38
-0.23860161 -0.79384613 2.0150001 2.0096844e-38
-0.36423525 -0.78565818 2.0150001 2.019083e-38
-0.3565591 -0.78412288 2.0150001 2.0097549e-38
-0.34542859 -0.78489053 2.0150003 1.982096e-38
-0.33583334 -0.78489053 2.0150001 1.9820623e-38
-0.32495877 -0.78425092 2.0150003 1.9728416e-38
-0.31376433 -0.78393102 2.0150001 1.981987e-38
-0.304032 -0.78434223 2.0150003 1.9912077e-38
-0.29553336 -0.78489059 2.0150003 2.0188664e-38
-0.28593811 -0.78489053 2.0150001 1.9725891e-38
-0.27570322 -0.78616995 2.0150003 1.8623882e-38
-0.26418889 -0.78744924 2.0150001 2.0096117e-38
-0.36270002 -0.77529526 2.0150001 2.0741492e-38
-0.35502386 -0.77529526 2.0150003 2.0004287e-38
-0.34542859 -0.77529532 2.0150001 1.9820972e-38
-0.33660099 -0.77567911 2.0150001 2.0095763e-38
-0.32431909 -0.77529526 2.0150003 2.0557812e-38
-0.31408417 -0.77465558 2.0150001 2.1111352e-38
-0.3051286 -0.77529526 2.0150003 2.0926958e-38
-0.29745239 -0.77721435 2.0150001 2.0834409e-38
-0.28401905 -0.77529532 2.0150001 2.0833683e-38
-0.23988096 -0.77337623 2.0150001 2.0927321e-38
-0.35502386 -0.7661798 2.0150001 2.101879e-38
-0.34504479 -0.76646775 2.0150001 2.0650015e-38
-0.3377524 -0.76761913 2.0150001 2.0743282e-38
-0.32383934 -0.76522022 2.0150001 2.0650725e-38
-0.31664288 -0.76570004 2.0150001 2.0743643e-38
-0.24371906 -0.75802386 2.0150001 2.0834046e-38
-0.37258193 -0.79535621 2.0270002 1.9917095e-38
-0.26061431 -0.79342574 2.0270002 2.0096125e-38
-0.25482288 -0.79342574 2.0270002 2.0003927e-38
-0.2451705 -0.79342574 2.0270002 2.0004651e-38
-0.37258193 -0.78956479 2.0270002 1.8353385e-38
-0.36872098 -0.78377336 2.0270002 1.8721476e-38
-0.29343241 -0.78184289 2.0270002 2.0926243e-38
-0.27477112 -0.78441685 2.0270004 2.0281592e-38
-0.26447526 -0.78522116 2.0270002 2.0742208e-38
-0.25675336 -0.78956479 2.0270002 2.0463108e-38
-0.24130955 -0.78570384 2.0270002 2.0835122e-38
-0.36717662 -0.77334881 2.0270002 1.9459753e-38
-0.3416943 -0.77412099 2.0270002 2.0651446e-38
-0.33397242 -0.77334881 2.0270002 2.055961e-38
-0.29459071 -0.77643758 2.0270002 2.1110992e-38
-0.28571048 -0.77219051 2.0270002 2.0835122e-38
-0.27702335 -0.7770167 2.0270002 2.129502e-38
-0.26254478 -0.77798194 2.0270002 2.1203198e-38
-0.2451705 -0.77412099 2.0270002 2.0834769e-38
-0.36563224 -0.76408255 2.0270002 1.9458324e-38
-0.35585114 -0.76382512 2.0270002 2.1203186e-38
-0.34555528 -0.76408255 2.0270002 2.0928754e-38
-0.3347446 -0.76408255 2.0270002 2.0282315e-38
-0.32432002 -0.76253814 2.0270002 2.0373424e-38
-0.28571048 -0.76639909 2.0270002 2.0558535e-38
-0.24774447 -0.7651121 2.0270002 2.06493e-38
-0.36292955 -0.75674671 2.0270002 2.1019152e-38
-0.35520765 -0.75674671 2.0270002 2.0191558e-38
-0.34362477 -0.75674671 2.0270002 2.0465626e-38
-0.33139843 -0.7573902 2.0270002 2.0465625e-38
-0.2451705 -0.75481623 2.0270002 2.0651095e-38
-0.36486003 -0.74709433 2.0270002 2.1013398e-38
-0.24517049 -0.74709433 2.0270002 2.0929117e-38
-0.37867147 -0.80200672 2.039 1.0244206e-38
-0.37770054 -0.79326808 2.039 1.1256908e-38
-0.25361282 -0.7919088 2.039 2.0650372e-38
-0.24662192 -0.79229718 2.039 2.0651448e-38
-0.2388543 -0.79618096 2.039 2.0188681e-38
-0.37478766 -0.78452957 2.039 1.6136029e-38
-0.26992479 -0.78258765 2.039 2.1202114e-38
-0.25438958 -0.78452957 2.039 2.0927326e-38
-0.24662192 -0.78647149 2.039 2.1020229e-38
-0.37478766 -0.77676195 2.039 1.3926585e-38
-0.31497699 -0.7755968 2.039 2.0651813e-38
-0.30487907 -0.77482003 2.0389998 2.0466341e-38
-0.29516956 -0.77287817 2.039 2.0557825e-38
-0.28157622 -0.77287817 2.039 2.0835481e-38
-0.27575052 -0.77482009 2.039 2.0926605e-38
-0.26604101 -0.77481997 2.0389998 2.0742939e-38
-0.25487503 -0.77530551 2.0389998 2.0834773e-38
-0.37090382 -0.76316863 2.039 1.4024935e-38
-0.35148478 -0.76316863 2.039 2.1019871e-38
-0.33983335 -0.76316863 2.039 2.0465629e-38
-0.32429814 -0.76446319 2.039 2.0373784e-38
-0.30099526 -0.76705241 2.039 2.0374515e-38
-0.29516956 -0.76511049 2.039 2.0466347e-38
-0.28546 -0.76511049 2.039 2.0466334e-38
-0.27575052 -0.76511049 2.039 2.0558182e-38
-0.26604098 -0.76511061 2.039 2.065002e-38
-0.25516632 -0.76472217 2.039 2.0558545e-38
-0.37284574 -0.75540102 2.039 7.2049919e-39
-0.36443079 -0.7541064 2.039 2.0650371e-38
-0.35481378 -0.75429142 2.039 1.9911741e-38
-0.34565908 -0.7534591 2.039 2.0188682e-38
-0.33594957 -0.75540107 2.039 2.055746e-38
-0.32478359 -0.75491554 2.0389998 2.0465982e-38
-0.3165305 -0.75151718 2.039 2.0465981e-38
-0.30876288 -0.75151718 2.039 2.0557091e-38
-0.29322764 -0.75928479 2.039 2.0558538e-38
-0.28546003 -0.75734299 2.039 2.0650011e-38
-0.27575052 -0.75734293 2.039 2.0558538e-38
-0.26604098 -0.7558865 2.0389998 2.0558544e-38
-0.25438955 -0.75540102 2.0389998 2.0558902e-38
-0.24273811 -0.75151718 2.039 2.0742931e-38
-0.35439765 -0.74666244 2.039 1.9819897e-38
-0.34565908 -0.74569148 2.039 1.991281e-38
-0.33400762 -0.74569148 2.039 2.0096845e-38
-0.32429814 -0.74569148 2.039 2.0281592e-38
-0.25050575 -0.7476334 2.039 2.0741857e-38
-0.24468002 -0.74569148 2.039 2.0558546e-38
-0.2369124 -0.74374956 2.039 2.065217e-38
-0.24273811 -0.73986578 2.039 2.0650381e-38
-0.23755971 -0.73727655 2.039 2.0466334e-38
-0.3204143 -0.72821432 2.039 2.3416944e-38
-0.31264669 -0.7243306 2.039 2.3416603e-38
-0.30720934 -0.72355378 2.039 2.3417683e-38
-0.3139413 -0.71526831 2.039 2.341769e-38
-0.35925239 -0.70491147 2.039 2.341769e-38
-0.31497696 -0.70568824 2.039 2.341769e-38
-0.29322764 -0.68937624 2.039 2.341769e-38
-0.28934383 -0.68937624 2.039 2.341769e-38
-0.38090003 -0.79110003 2.0510001 8.3912975e-39
-0.38090003 -0.78524005 2.0510001 7.8266247e-39
-0.38090003 -0.77938002 2.0510001 7.1658284e-39
-0.37699336 -0.77351999 2.0510001 1.0242389e-38
-0.31448668 -0.77254337 2.0510001 2.0006445e-38
-0.30667335 -0.77156669 2.0510001 2.0281957e-38
-0.37699336 -0.76766002 2.0510001 6.5499002e-39
-0.32230002 -0.76570666 2.0510001 2.0373427e-38
-0.31448671 -0.76570672 2.0510004 2.0557459e-38
-0.30472001 -0.76570672 2.0510001 2.0466349e-38
-0.29886001 -0.76375335 2.0510001 2.0465986e-38
-0.37308669 -0.75203341 2.0510001 1.0241013e-38
-0.36722669 -0.75203341 2.0510001 1.9640535e-38
-0.34183335 -0.75398672 2.0510001 2.0281606e-38
-0.31448668 -0.75594008 2.0510004 2.0465617e-38
-0.30472004 -0.75594008 2.0510004 2.0466334e-38
-0.29544169 -0.75545168 2.0510004 2.0557816e-38
-0.28518668 -0.75398672 2.0510001 2.0557819e-38
-0.27620134 -0.75359607 2.0510004 2.0282307e-38
-0.26630446 -0.75333565 2.0510001 2.0373785e-38
-0.25784001 -0.75203341 2.0510001 2.0558179e-38
-0.37308669 -0.74422014 2.0510001 9.6906697e-39
-0.36527336 -0.74422008 2.0510004 2.0375224e-38
-0.35589734 -0.74343878 2.0510004 2.1938576e-38
-0.34518197 -0.74310392 2.0510004 2.1569801e-38
-0.33402002 -0.74226677 2.0510004 2.1108835e-38
-0.32425335 -0.74226671 2.0510001 1.9911382e-38
-0.31448671 -0.74422014 2.0510004 1.9913533e-38
-0.30472001 -0.74422014 2.0510004 2.0098277e-38
-0.29625559 -0.74487126 2.0510004 2.0005006e-38
-0.28518668 -0.74812675 2.0510001 2.0281599e-38
-0.2765362 -0.74477828 2.0510004 2.0282307e-38
-0.26467669 -0.7451967 2.0510001 2.0373788e-38
-0.25588667 -0.74422008 2.0510004 2.0466347e-38
-0.24677114 -0.74161565 2.0510001 2.065002e-38
-0.23635335 -0.74422008 2.0510001 2.0558538e-38
-0.36527336 -0.73445344 2.0510004 2.2220579e-38
-0.35550666 -0.73445344 2.0510001 2.3325853e-38
-0.34574002 -0.73445338 2.0510004 2.3141458e-38
-0.33402002 -0.73445344 2.0510004 2.2864865e-38
-0.32490447 -0.73510456 2.0510001 2.2220558e-38
-0.31546336 -0.73543012 2.0510001 2.194109e-38
-0.30472001 -0.73445344 2.0510001 2.2491751e-38
-0.29495335 -0.73445344 2.0510004 2.2306645e-38
-0.28714001 -0.73250008 2.0510001 2.2309535e-38
-0.26370001 -0.73640674 2.0510001 2.0005733e-38
-0.24338536 -0.73484415 2.0510004 2.0281577e-38
-0.23635335 -0.73445344 2.0510001 2.0189386e-38
-0.36527339 -0.72468668 2.0510004 2.3232926e-38
-0.35550666 -0.7246868 2.0510004 2.341769e-38
-0.34574002 -0.72468674 2.0510004 2.341769e-38
-0.33402002 -0.72468674 2.0510004 2.341769e-38
-0.32425338 -0.72468674 2.0510004 2.341769e-38
-0.31578892 -0.7246868 2.0510001 2.341769e-38
-0.30374336 -0.72371006 2.0510001 2.3325496e-38
-0.2975578 -0.72729123 2.0510001 2.3325854e-38
-0.24221335 -0.72859341 2.0510001 2.1383962e-38
-0.36527336 -0.71492004 2.0510004 2.3417321e-38
-0.35550669 -0.71492004 2.0510001 2.341769e-38
-0.34574005 -0.71492004 2.0510004 2.341769e-38
-0.33402002 -0.71492004 2.0510004 2.341769e-38
-0.32425335 -0.7149201 2.0510001 2.341769e-38
-0.31318447 -0.71557117 2.0510001 2.341769e-38
-0.30537114 -0.71426892 2.0510001 2.341769e-38
-0.36527336 -0.70906007 2.0510001 2.341769e-38
-0.3548556 -0.70775789 2.0510001 2.341769e-38
-0.3431356 -0.70775789 2.0510001 2.341769e-38
-0.33457813 -0.70626962 2.0510004 2.341769e-38
-0.32425338 -0.70515341 2.0510004 2.341769e-38
-0.31370535 -0.70437211 2.0510004 2.341769e-38
-0.30667335 -0.70710671 2.0510001 2.341769e-38
-0.29495335 -0.69734013 2.0510001 2.341769e-38
-0.28518668 -0.6934334 2.0510001 2.341769e-38
-0.2940594 -0.7472645 2.0630002 2.0098279e-38
-0.28601325 -0.74408346 2.0630002 2.0464187e-38
-0.2740843 -0.74366242 2.0630002 2.0464539e-38
-0.26720765 -0.74366242 2.0630002 2.0190117e-38
-0.25541908 -0.74071527 2.0630002 2.0098643e-38
-0.29274955 -0.73285621 2.0630002 2.3325854e-38
-0.28410459 -0.73442805 2.0630002 2.1942204e-38
-0.27506667 -0.73482102 2.0630002 2.1110985e-38
-0.26524287 -0.73482102 2.0630002 2.0558179e-38
-0.25541908 -0.73482102 2.0630002 2.064893e-38
-0.24952477 -0.73482096 2.0630002 2.0741478e-38
-0.23773621 -0.73285621 2.0630002 2.1383966e-38
-0.30191845 -0.72237748 2.0630002 2.341769e-38
-0.2947143 -0.72499722 2.0630002 2.341769e-38
-0.2848905 -0.72499722 2.063 2.3417689e-38
-0.27506667 -0.72499716 2.0630002 2.3417323e-38
-0.26524287 -0.72499716 2.063 2.3416963e-38
-0.25541908 -0.72499722 2.0630002 2.3416603e-38
-0.24559528 -0.7249971 2.063 2.3140735e-38
-0.23773621 -0.72499722 2.0630002 2.2956346e-38
-0.35169241 -0.71320862 2.0630002 2.341769e-38
-0.30191845 -0.71451849 2.0630002 2.341769e-38
-0.29471433 -0.71517336 2.0630002 2.341769e-38
-0.28567645 -0.71556634 2.0630002 2.341769e-38
-0.27506667 -0.71713817 2.0630002 2.341769e-38
-0.26524287 -0.71713817 2.0630002 2.341769e-38
-0.25541908 -0.71713817 2.0630002 2.341769e-38
-0.24559526 -0.71517342 2.0630002 2.341769e-38
-0.23642638 -0.71451849 2.0630002 2.341769e-38
-0.35169241 -0.70927912 2.0630002 2.341769e-38
-0.34579813 -0.70731437 2.0630002 2.341769e-38
-0.31239715 -0.70534956 2.0630002 2.341769e-38
-0.30375224 -0.7069214 2.0630002 2.341769e-38
-0.2940594 -0.70796931 2.0630002 2.341769e-38
-0.28601325 -0.70534956 2.0630002 2.341769e-38
-0.24559526 -0.70927918 2.0630002 2.341769e-38
-0.23642638 -0.70796931 2.0630002 2.341769e-38
-0.28273144 -0.71572578 2.0760002 2.341769e-38
-0.27482286 -0.71572578 2.0760002 2.341769e-38
-0.26493716 -0.71572578 2.0760002 2.341769e-38
-0.25702858 -0.71572578 2.0760002 2.341769e-38
-0.29854858 -0.70979434 2.0760002 2.341769e-38
-0.25505143 -0.7097944 2.0760002 2.341769e-38
-0.24516574 -0.70979434 2.0760002 2.341769e-38
-0.28038859 -0.71389717 2.0880001 2.341769e-38
-0.27442288 -0.71389717 2.0880001 2.341769e-38
-0.26646858 -0.71389717 2.0880001 2.341769e-38
-0.28237718 -0.70992005 2.0880001 2.341769e-38
-0.27508575 -0.70859432 2.0880001 2.341769e-38
-0.26050287 -0.70992005 2.0880001 2.341769e-38
-0.25453717 -0.70992005 2.0880001 2.341769e-38
-0.28413525 -0.71033812 2.1010001 2.341769e-38
-0.27146256 -0.71167207 2.1010003 2.341769e-38
-0.26612669 -0.71434003 2.1010001 2.341769e-38
-0.25011906 -0.71434003 2.1010001 2.341769e-38
-0.24611716 -0.71434003 2.1010001 2.341769e-38
-0.27212954 -0.70633626 2.1010001 2.341769e-38
-0.26576003 -0.71272004 2.1140001 2.341769e-38
-0.2577067 -0.71272004 2.1140001 2.341769e-38
-0.2532143 -0.71912861 2.1270001 2.341769e-38
-0.24713716 -0.71912861 2.1270001 2.341769e-38
