# .PCD v0.7 - Point Cloud Data file format
VERSION 0.7
FIELDS x y z rgb
SIZE 4 4 4 4
TYPE F F F F
COUNT 1 1 1 1
WIDTH 151
HEIGHT 1
VIEWPOINT 0 0 0 1 0 0 0
POINTS 151
DATA ascii
0.52841151 0.014125715 1.008 2.766578e-39
0.52896005 0.021120001 1.008 3.5012409e-39
0.53303719 -0.001614286 1.0170001 2.4889289e-39
0.52888685 0.0055660717 1.0166252 3.1321179e-39
0.5311417 0.0048251436 1.0140001 2.5811147e-39
0.52770472 0.014628135 1.0135386 3.0413516e-39
0.52845985 0.023292992 1.0150911 2.9480769e-39
0.53055251 0.027010359 1.0128751 2.8533786e-39
0.52931321 0.035765361 1.015125 1.9257662e-38
0.5311861 0.034991074 1.013625 1.4086776e-38
0.52772486 0.043412387 1.013 2.0652878e-38
0.53088051 0.043436673 1.0135001 2.1572299e-38
0.53742862 -0.010748572 1.026 2.8584233e-39
0.5294286 -0.0019428573 1.0200001 3.040281e-39
0.53340816 -0.0053153853 1.0216154 2.6726069e-39
0.52864462 0.0050668581 1.0230001 3.1321347e-39
0.53058863 0.00097714295 1.026 3.13179e-39
0.5282163 0.014622 1.0233001 2.7633466e-39
0.52903342 0.023050478 1.0230001 6.44069e-39
0.53058863 0.025405716 1.026 1.2427258e-38
0.5294286 0.034000006 1.0200001 2.00953e-38
0.53058863 0.032245718 1.026 2.1845593e-38
0.54266667 -0.020720001 1.036 2.6732949e-39
0.52939528 -0.010884763 1.039 1.9393312e-39
0.53704101 -0.012962223 1.0362 2.4907183e-39
0.54143614 -0.016501311 1.034125 2.4914246e-39
0.5291329 -0.0039555239 1.0381001 3.3168651e-39
0.53298968 -0.005758347 1.0342633 2.9484567e-39
0.52745801 0.0053147152 1.03405 3.500536e-39
0.53048432 0.00098238094 1.0315001 3.4076622e-39
0.52702975 0.014385559 1.0355 1.1787309e-38
0.53027338 0.017708573 1.033 3.3990022e-39
0.52888387 0.020760002 1.0380001 2.0179253e-38
0.53097898 0.025234068 1.0343847 1.9073617e-38
0.53136319 0.034436397 1.0332143 2.1846394e-38
0.53172386 0.040297147 1.0320001 2.1109552e-38
0.53819859 -0.020930002 1.0465001 2.2148405e-39
0.54501247 -0.023617892 1.0456431 2.6736635e-39
0.5503667 -0.027866669 1.0450001 2.9495497e-39
0.52870524 -0.010931905 1.0435001 2.7669297e-39
0.5342145 -0.016083855 1.0434999 2.3977926e-39
0.54084766 -0.01885524 1.0420001 2.2141314e-39
0.52821255 -0.0047711432 1.0441 3.3161602e-39
0.52719522 0.004531641 1.0446668 6.1634011e-39
0.52389115 0.017117528 1.0450001 2.0371968e-38
0.52714175 0.024133541 1.0435001 2.0740754e-38
0.53092384 0.025801908 1.0420001 2.1294636e-38
0.52870524 0.030808099 1.0435001 2.1572687e-38
0.53092384 0.031756192 1.0420001 2.1756717e-38
0.54623079 -0.032527067 1.0562503 2.8577226e-39
0.55390894 -0.034930348 1.0558002 3.0428103e-39
0.5378235 -0.02348892 1.0555457 2.2141244e-39
0.54358375 -0.026962437 1.0533127 2.3988842e-39
0.55104768 -0.02905524 1.052 2.7662346e-39
0.52925479 -0.011068096 1.0565001 3.860688e-39
0.53271204 -0.015080358 1.0553751 2.858412e-39
0.5290485 -0.0048483987 1.0566367 5.8860981e-39
0.53000772 -0.007013334 1.052 2.3063271e-39
0.52844793 0.004574392 1.0546668 1.6391993e-38
0.5266065 0.013688353 1.0556926 2.046345e-38
0.55589175 -0.041870754 1.0648571 2.9520412e-39
0.56040955 -0.043655239 1.066 3.1360793e-39
0.54544747 -0.034741476 1.0643637 2.6740334e-39
0.55195761 -0.038900144 1.0628572 2.5843489e-39
0.53567314 -0.024364606 1.0659446 3.3143539e-39
0.54022932 -0.028912621 1.0652502 2.2145182e-39
0.5294525 -0.013772381 1.0652857 1.1785502e-38
0.53255123 -0.016854027 1.0636364 4.4142191e-39
0.52754956 -0.0052086399 1.0634999 1.7595949e-38
0.52886027 0.0050687627 1.0638001 2.0552364e-38
0.53050005 0.0090942867 1.0610001 2.092655e-38
0.52544767 0.012125716 1.0610001 1.9818088e-38
0.55953336 -0.05030667 1.0780001 3.1357178e-39
0.56486136 -0.050680008 1.0772001 3.319386e-39
0.54798716 -0.041995715 1.0755 2.399236e-39
0.55532247 -0.045587886 1.0742779 3.0431747e-39
0.56337255 -0.047204576 1.0728 3.0449613e-39
0.53716135 -0.032060638 1.0743334 5.3401144e-39
0.54450464 -0.036552634 1.0739473 2.398171e-39
0.53379285 -0.026426669 1.073143 1.1422459e-38
0.52900881 -0.012074287 1.0744001 1.9724408e-38
0.5309304 -0.016715396 1.0748334 1.9077949e-38
0.52761871 -0.0051120003 1.0724001 2.0092151e-38
0.53078669 -0.0092400005 1.0780001 2.0001026e-38
0.52938002 0.0030600005 1.0710001 1.9725881e-38
0.55613184 -0.051479813 1.0854001 2.768373e-39
0.56574476 -0.054873936 1.0845001 3.1353731e-39
0.57179594 -0.058319688 1.0870001 3.0446054e-39
0.54594654 -0.043172263 1.0844668 2.3981556e-39
0.55206335 -0.048156351 1.0835001 3.2268218e-39
0.53739637 -0.033089053 1.0858334 1.4372381e-38
0.54128522 -0.037351813 1.0834001 2.2087701e-39
0.53397161 -0.025294373 1.0860001 1.9909529e-38
0.52775526 -0.01654762 1.0855001 1.9263829e-38
0.53135395 -0.0178075 1.0838751 1.908053e-38
0.55945718 -0.061697148 1.098 3.9612017e-39
0.56782293 -0.061697148 1.098 3.5027053e-39
0.57505292 -0.06231001 1.0965002 3.2286421e-39
0.55500698 -0.05499601 1.0950001 3.133941e-39
0.56358129 -0.057992868 1.0938334 3.1353745e-39
0.54618055 -0.045627702 1.0946153 4.7866127e-39
0.53595328 -0.033440057 1.0952351 1.8064188e-38
0.54173529 -0.038620956 1.0960001 1.4003934e-38
0.52852422 -0.024512976 1.0951251 1.9174149e-38
0.53186148 -0.026034573 1.0933001 1.9265252e-38
0.52679718 -0.019741906 1.0910001 1.926491e-38
0.55906051 -0.061062384 1.1055 4.3299898e-39
0.5647248 -0.063420959 1.10525 3.6871203e-39
0.57604247 -0.065294057 1.1057501 3.4123089e-39
0.58223003 -0.067386195 1.1055 3.1371906e-39
0.55402768 -0.055202693 1.1050001 4.9710334e-39
0.53979242 -0.042171434 1.1070001 1.5392333e-38
0.54419577 -0.045103114 1.1046667 1.4191252e-38
0.55027527 -0.049640957 1.1090001 1.0232639e-38
0.53501475 -0.035508867 1.1040001 1.7418098e-38
0.57713151 -0.071211442 1.1160001 3.6849595e-39
0.58489323 -0.071598291 1.1154001 3.5959911e-39
0.55693722 -0.060582861 1.1160001 1.0046783e-38
0.56326342 -0.064392865 1.1145 6.2671294e-39
0.57485241 -0.068039685 1.1143334 3.5945464e-39
0.58300006 -0.068900004 1.113 3.4126774e-39
0.54665089 -0.052477147 1.1154002 1.1794157e-38
0.55316144 -0.055157151 1.11375 1.0507037e-38
0.5388422 -0.042429287 1.1137501 1.5299789e-38
0.54309028 -0.048388001 1.1142 1.3178542e-38
0.53742003 -0.039220002 1.113 1.6129185e-38
0.5914067 -0.080500007 1.1270001 5.5335357e-39
0.56994003 -0.071913339 1.1270001 9.5864916e-39
0.57551664 -0.074194677 1.1225333 7.3745336e-39
0.5854646 -0.076009057 1.1217858 4.5161509e-39
0.5914467 -0.078075245 1.123 4.3306877e-39
0.55707186 -0.063563205 1.1242727 1.0504876e-38
0.5641126 -0.067177884 1.1223078 9.9527518e-39
0.57173336 -0.069333337 1.12 5.5317252e-39
0.54627609 -0.05418817 1.1218572 1.1240286e-38
0.55250728 -0.057977267 1.1221249 1.0688557e-38
0.54152429 -0.046997622 1.1215 1.4099432e-38
0.58919716 -0.080785722 1.131 8.7513667e-39
0.59496599 -0.081991196 1.13275 6.7306327e-39
0.60151434 -0.083453342 1.138 6.9185861e-39
0.56873143 -0.072168574 1.131 9.9520413e-39
0.57164145 -0.075500011 1.1325001 9.5850693e-39
0.55563432 -0.064671427 1.1317501 1.0229364e-38
0.56119144 -0.067860007 1.131 1.0321562e-38
0.54756004 -0.052920002 1.1340001 1.1516869e-38
0.59927815 -0.085921913 1.1420001 9.7669536e-39
0.60356003 -0.086222865 1.146 9.6744105e-39
0.55590105 -0.061483815 1.146 9.8609541e-39
0.55238736 -0.056655876 1.1440001 1.114809e-38
0.60785717 -0.086523816 1.1500001 9.5821924e-39
0.55309528 -0.061333336 1.1500001 1.1791994e-38
