# .PCD v0.7 - Point Cloud Data file format
VERSION 0.7
FIELDS x y z rgb
SIZE 4 4 4 4
TYPE F F F F
COUNT 1 1 1 1
WIDTH 1032
HEIGHT 1
VIEWPOINT 0 0 0 1 0 0 0
POINTS 1032
DATA ascii
0.31178099 -0.32654953 1.723 9.8606192e-39
0.31260145 -0.31506288 1.723 1.0135393e-38
0.31424239 -0.30275574 1.723 9.6765783e-39
0.31752428 -0.29291001 1.723 9.7698305e-39
0.31889176 -0.28607273 1.723 9.7694815e-39
0.32326764 -0.28060287 1.723 9.7687627e-39
0.31998575 -0.27239811 1.723 9.76912e-39
0.32326764 -0.27403909 1.723 9.6772831e-39
0.31998575 -0.26747525 1.723 9.6769244e-39
0.32458043 -0.26353696 1.7229999 9.5847316e-39
0.32654956 -0.2559886 1.723 9.951726e-39
0.32983145 -0.24122001 1.723 8.7560471e-39
0.32983145 -0.2346562 1.723 8.8471371e-39
0.32983145 -0.22481051 1.723 8.294706e-39
0.33311334 -0.21660572 1.723 8.2950731e-39
0.33475429 -0.20347811 1.723 8.3865457e-39
0.33639526 -0.19527334 1.723 8.203239e-39
0.33748922 -0.18542764 1.723 8.2954487e-39
0.3388567 -0.17558192 1.723 8.4794518e-39
0.33967718 -0.1657362 1.723 8.7549709e-39
0.33967716 -0.15917239 1.723 9.0315452e-39
0.34295908 -0.15260859 1.723 9.0315606e-39
0.34295911 -0.14604478 1.723 9.122673e-39
0.34295911 -0.12635335 1.723 9.1230626e-39
0.77781153 -0.12307144 1.723 1.4930272e-38
0.34295911 -0.11650763 1.723 8.9397209e-39
0.71217334 -0.11322572 1.723 1.4655486e-38
0.75647914 -0.11322572 1.723 1.5023191e-38
0.76679367 -0.11650763 1.7229999 1.4930636e-38
0.77617055 -0.11650763 1.7229998 1.4930268e-38
0.78667265 -0.1178204 1.7229999 1.456328e-38
0.79651833 -0.11847677 1.7229999 1.3824999e-38
0.80406672 -0.11814858 1.723 1.2625022e-38
0.34492823 -0.10534915 1.7229999 8.7553226e-39
0.70725054 -0.10173906 1.723 1.4563289e-38
0.71344966 -0.10410932 1.7229998 1.4655125e-38
0.72300369 -0.10338002 1.7229999 1.4470731e-38
0.73268533 -0.10091858 1.723 1.4101926e-38
0.7448101 -0.10447399 1.7229998 1.4657278e-38
0.75565863 -0.10912333 1.723 1.4839517e-38
0.76632482 -0.10994381 1.723 1.4840241e-38
0.7728886 -0.10994381 1.723 1.4748044e-38
0.34952292 -0.093534291 1.723 9.031555e-39
0.7059378 -0.092877917 1.7229999 1.4839158e-38
0.71381438 -0.093534291 1.7229998 1.4839515e-38
0.72366005 -0.093534291 1.7229998 1.4562568e-38
0.7324118 -0.09462826 1.7229999 1.4378171e-38
0.74006957 -0.096816197 1.723 1.456543e-38
0.34952292 -0.083688579 1.723 9.0319095e-39
0.35280478 -0.080406673 1.723 9.0344374e-39
0.66622674 -0.080406673 1.723 1.4562931e-38
0.6744315 -0.080406681 1.723 1.4748394e-38
0.68509763 -0.081227154 1.723 1.4748756e-38
0.69494337 -0.081227146 1.723 1.4933164e-38
0.70396864 -0.083688579 1.7229998 1.4932077e-38
0.71381432 -0.083688572 1.7229998 1.4931002e-38
0.72366005 -0.083688579 1.7229998 1.4932079e-38
0.73153663 -0.084344953 1.7229999 1.4840967e-38
0.80461377 -0.081500642 1.723 1.4011553e-38
0.34952292 -0.073842868 1.723 8.7560653e-39
0.35280478 -0.073842868 1.723 8.7564352e-39
0.64653528 -0.070560955 1.723 1.4378177e-38
0.65539646 -0.071873717 1.7229999 1.4195233e-38
0.66364813 -0.074311711 1.7229999 1.4288148e-38
0.67333746 -0.076030806 1.723 1.4747678e-38
0.68263626 -0.077124767 1.723 1.5299768e-38
0.69248194 -0.075483814 1.723 1.5116105e-38
0.70462507 -0.075812005 1.7229999 1.4930995e-38
0.71422452 -0.074253097 1.7229998 1.4839525e-38
0.72272241 -0.074311711 1.7229999 1.502463e-38
0.80406672 -0.077124767 1.723 1.4010835e-38
0.35280478 -0.063997149 1.723 8.5720272e-39
0.64489436 -0.063997149 1.7229998 1.3737159e-38
0.65474004 -0.063997149 1.7229998 1.7144775e-38
0.66261667 -0.064653531 1.7229999 1.640611e-38
0.35444576 -0.054971907 1.723 8.6635053e-39
0.64653528 -0.054151438 1.7229999 1.1984021e-38
0.65408367 -0.056120574 1.7229999 1.7152692e-38
0.66130388 -0.057433337 1.723 1.7510668e-38
0.3560867 -0.044305719 1.723 8.6635081e-39
0.63636136 -0.044305719 1.7229999 1.4287401e-38
0.3560867 -0.034460004 1.723 8.6634955e-39
0.62684381 -0.031178098 1.723 1.3732822e-38
0.6345017 -0.034460004 1.7229999 1.3731025e-38
0.35936862 -0.024614289 1.723 8.8475168e-39
0.60551149 -0.022426352 1.723 1.4378536e-38
0.61535716 -0.026255239 1.723 1.4286697e-38
0.35936862 -0.014768573 1.723 8.7571233e-39
0.36265051 -0.011486667 1.723 8.8486155e-39
0.52018195 -0.011486667 1.723 1.4288132e-38
0.53659147 -0.011486667 1.723 1.4100521e-38
0.54725766 -0.012307143 1.723 1.3456218e-38
0.55628288 -0.013127619 1.7229999 1.3272533e-38
0.5644877 -0.014768573 1.723 1.3456215e-38
0.57597435 -0.018050477 1.723 1.3918264e-38
0.58582008 -0.018050477 1.723 1.4286344e-38
0.59894764 -0.018050477 1.723 1.4929203e-38
0.35936859 -0.0082047628 1.723 8.9397139e-39
0.3637445 -0.0060168258 1.723 9.1226744e-39
0.4939267 -0.0016409525 1.723 1.4563294e-38
0.50705433 -0.0049228575 1.723 1.4472517e-38
0.51455587 -0.0053917011 1.7229999 1.4379256e-38
0.522995 -0.0039851707 1.7229999 1.373605e-38
0.53495049 -0.0065638102 1.7229998 1.4010474e-38
0.54534328 -0.0071107945 1.723 1.3641692e-38
0.55628288 -0.0082047628 1.723 1.3273978e-38
0.36757338 0.0049228575 1.723 9.0301046e-39
0.37249622 0.0082047628 1.723 8.0199268e-39
0.41680193 0.0082047628 1.723 1.4105196e-38
0.42500669 0.0049228575 1.7229998 1.4746597e-38
0.48473737 0.0042664767 1.7229999 1.456258e-38
0.49439558 0.0039851707 1.7229999 1.4562568e-38
0.50377244 0.0053330953 1.7229998 1.4285624e-38
0.51033622 0.0032819051 1.723 1.4377823e-38
0.52346385 0.0016409525 1.723 1.4194507e-38
0.3692143 0.014768573 1.723 8.5713083e-39
0.37249622 0.014768573 1.723 8.1110658e-39
0.39546961 0.018050477 1.723 1.4655131e-38
0.40625295 0.015237415 1.7229999 1.3548044e-38
0.41516095 0.014768571 1.7229998 1.3641705e-38
0.42500672 0.014768571 1.7229998 1.456293e-38
0.4561848 0.018050477 1.723 1.4377867e-38
0.47669667 0.015589048 1.723 1.4378558e-38
0.48079908 0.014768573 1.723 1.4470391e-38
0.3692143 0.021332383 1.723 8.4794588e-39
0.37523112 0.024614288 1.7229999 1.0416639e-38
0.38628024 0.025270669 1.7229999 1.4562937e-38
0.39546955 0.024614288 1.7229998 1.4379615e-38
0.40531525 0.024614288 1.7229998 1.3454054e-38
0.41516098 0.024614289 1.7229998 1.3825726e-38
0.42336574 0.021332383 1.723 1.4379257e-38
0.43444213 0.024204051 1.7229998 1.4378159e-38
0.44535452 0.022645146 1.7229999 1.4101956e-38
0.45372337 0.02215286 1.723 1.428672e-38
0.46504593 0.022645146 1.7229999 1.4469654e-38
0.47204733 0.022426352 1.723 1.4377468e-38
0.37774727 0.033803619 1.7229999 1.3917928e-38
0.38562384 0.034460001 1.7229998 1.4745885e-38
0.39546955 0.034460001 1.7229998 1.4195215e-38
0.40531525 0.031178098 1.723 1.3180002e-38
0.41187906 0.032819048 1.723 1.3547719e-38
0.43321145 0.032819048 1.723 1.4101952e-38
0.37906003 0.044305719 1.723 1.4838078e-38
0.38562384 0.044305716 1.7229998 1.4745157e-38
0.3938286 0.044305719 1.7229999 1.4100868e-38
0.37906003 0.052510478 1.723 1.4651174e-38
0.3839829 0.050869528 1.723 1.4746583e-38
0.39218765 0.050869528 1.723 1.4284542e-38
0.8779096 0.17886382 1.723 2.2679762e-38
0.8549363 0.18870954 1.723 2.2125505e-38
0.86560243 0.18788907 1.723 2.1940752e-38
0.87462771 0.18378669 1.723 2.221771e-38
0.88447332 0.18378669 1.723 2.2679039e-38
0.89103723 0.18542764 1.723 2.2032598e-38
0.90580583 0.18214573 1.723 2.1757087e-38
0.91401052 0.18214574 1.723 2.2309176e-38
0.92057437 0.18214573 1.723 2.221625e-38
0.7876572 0.19855525 1.723 2.203223e-38
0.79520559 0.19724248 1.7229999 2.2217703e-38
0.82704008 0.19855525 1.723 2.2033297e-38
0.83524483 0.1969143 1.7229999 2.1940019e-38
0.84509057 0.19486311 1.7229998 2.1663811e-38
0.85427994 0.19330421 1.7229999 2.1940759e-38
0.86314106 0.19199145 1.723 2.2217335e-38
0.72694194 0.2034781 1.723 2.2862351e-38
0.73268527 0.20593953 1.723 2.2771589e-38
0.74882138 0.20730701 1.723 2.2402822e-38
0.75647908 0.20676002 1.723 2.2401736e-38
0.76632488 0.20840096 1.723 2.2217706e-38
0.77699101 0.20758049 1.723 2.1939668e-38
0.78273433 0.20183715 1.723 2.1941107e-38
0.79914385 0.20183715 1.723 2.2218771e-38
0.80406678 0.20593953 1.723 2.1940031e-38
0.81555337 0.20511906 1.723 2.1940747e-38
0.82474273 0.20380631 1.7229999 2.2031863e-38
0.74663341 0.21250334 1.723 2.1940398e-38
0.25485146 -0.70434666 1.7320001 1.0229022e-38
0.25567621 -0.69280005 1.7320001 1.0322266e-38
0.25815052 -0.68537724 1.7320001 1.0231536e-38
0.25732574 -0.65156198 1.7320001 1.0690708e-38
0.25897527 -0.64661336 1.7320001 1.0689629e-38
0.2622743 -0.64331436 1.7320001 1.0231515e-38
0.26227432 -0.63506675 1.7320001 1.0139325e-38
0.26557335 -0.62516963 1.7320001 1.0876184e-38
0.26887241 -0.61197335 1.7320001 1.1152424e-38
0.26887241 -0.60537529 1.7320001 1.1152415e-38
0.26887241 -0.59547812 1.7320001 1.1153136e-38
0.27217144 -0.59217906 1.7320001 1.124535e-38
0.26887241 -0.58888006 1.7320001 1.1152438e-38
0.27217144 -0.58393145 1.7320001 1.1243915e-38
0.27217144 -0.57733333 1.7320001 1.1243558e-38
0.27382097 -0.56413722 1.7320001 1.1152769e-38
0.27464575 -0.5567143 1.7320001 1.0968378e-38
0.2754705 -0.54599243 1.7320001 1.0968365e-38
0.27876955 -0.5327962 1.7320001 1.1059494e-38
0.27876955 -0.52949721 1.7320001 1.1059859e-38
0.27876955 -0.51465142 1.7320001 1.1149903e-38
0.27876955 -0.50970286 1.7320001 1.1150964e-38
0.28206858 -0.50310481 1.7320001 1.09673e-38
0.28206858 -0.49485719 1.7320001 1.0875109e-38
0.28701717 -0.48496002 1.7320001 1.0598169e-38
0.29196572 -0.47506291 1.7320001 1.0415219e-38
0.29306543 -0.46351624 1.7320001 1.0322662e-38
0.2886667 -0.45196956 1.7320001 1.0230101e-38
0.29196572 -0.45691812 1.7320001 1.0505612e-38
0.2886667 -0.44372195 1.7320001 1.013827e-38
0.2941651 -0.43382478 1.7320001 1.0045341e-38
0.29526478 -0.42392766 1.7320001 9.8620331e-39
0.29691431 -0.41403049 1.7320001 9.4946897e-39
0.29746416 -0.40413338 1.7320001 9.5850805e-39
0.29856384 -0.39423621 1.7320001 9.768041e-39
0.29856384 -0.38598859 1.7320001 9.9517148e-39
0.30186287 -0.38104004 1.7320001 1.0503454e-38
0.30406225 -0.37444195 1.7320001 9.4943338e-39
0.30516192 -0.36454481 1.7320001 9.6772761e-39
0.30681145 -0.35629717 1.7320001 9.7691256e-39
0.31176001 -0.34145144 1.7320001 9.5861679e-39
0.31176001 -0.33485335 1.7320001 9.6780286e-39
0.31176001 -0.31505907 1.7320001 9.8602451e-39
0.31176001 -0.30681145 1.7320001 9.4925626e-39
0.31505907 -0.29526478 1.7320001 9.6776447e-39
0.31725845 -0.28536767 1.7320001 9.6765797e-39
0.32165715 -0.28206858 1.7320001 9.6769342e-39
0.31835812 -0.2754705 1.7320001 9.6765727e-39
0.32165715 -0.27876955 1.7320001 9.7687697e-39
0.31835812 -0.26887241 1.7320001 9.49218e-39
0.32165715 -0.26392382 1.7320001 9.4925359e-39
0.32495621 -0.25650096 1.7320001 9.4921758e-39
0.32825527 -0.24248001 1.7320001 8.7560485e-39
0.32825527 -0.23588192 1.7320001 9.1226534e-39
0.32825527 -0.22598478 1.7320001 8.4790945e-39
0.32825527 -0.21938668 1.7320001 8.3861814e-39
0.33155429 -0.21608764 1.7320001 8.2943501e-39
0.33485335 -0.1929943 1.7320001 8.0195695e-39
0.33595306 -0.18639621 1.7320001 8.2032517e-39
0.33650291 -0.17732383 1.7320001 8.2943543e-39
0.33815241 -0.1649524 1.7320001 8.6631452e-39
0.34145144 -0.15505525 1.7320001 9.1234017e-39
0.34475049 -0.13361144 1.7320001 9.1230373e-39
0.34145144 -0.11546667 1.7320001 8.7560555e-39
0.77032769 -0.11216763 1.7320001 1.483988e-38
0.78434861 -0.11134286 1.7320001 1.4655118e-38
0.79389232 -0.11287457 1.7320004 1.4287062e-38
0.80551749 -0.11271746 1.7320002 1.2993824e-38
0.81321532 -0.11546667 1.7320001 1.3829672e-38
0.75449228 -0.10194059 1.7320002 1.4656576e-38
0.76372957 -0.10433239 1.7320002 1.4931721e-38
0.77456933 -0.1043913 1.7320004 1.4656929e-38
0.78352386 -0.10392002 1.7320002 1.4564366e-38
0.79300869 -0.10433239 1.7320002 1.4288138e-38
0.8033182 -0.10533389 1.7320004 1.2256258e-38
0.34804958 -0.094022863 1.7320001 8.9393579e-39
0.73733717 -0.090723813 1.7320001 1.4655839e-38
0.74440658 -0.093080275 1.7320004 1.4656188e-38
0.75383252 -0.097321913 1.7320001 1.4472178e-38
0.78352386 -0.097321913 1.7320001 1.4655842e-38
0.79177153 -0.097321913 1.7320001 1.4932074e-38
0.80991626 -0.090723813 1.7320001 1.4011915e-38
0.81321532 -0.090723813 1.7320001 1.4286347e-38
0.34804955 -0.082476199 1.7320001 9.0319165e-39
0.73733717 -0.08082667 1.7320001 1.511576e-38
0.74352294 -0.084538095 1.7320002 1.4839877e-38
0.7505334 -0.08412572 1.7320001 1.4656567e-38
0.8066172 -0.085775249 1.7320001 1.373605e-38
0.81321532 -0.08742477 1.7320001 1.4287073e-38
0.34804958 -0.074228585 1.7320001 8.8478938e-39
0.67399544 -0.072249152 1.7320002 1.4656195e-38
0.6840812 -0.073285997 1.7320004 1.5023904e-38
0.69312996 -0.07290896 1.7320002 1.5207223e-38
0.70324707 -0.073128901 1.7320002 1.5115746e-38
0.71259433 -0.070929527 1.7320001 1.5023538e-38
0.73403811 -0.074228577 1.7320004 1.5299777e-38
0.80331814 -0.077527627 1.7320001 1.3826086e-38
0.35134861 -0.064331435 1.7320001 8.5716698e-39
0.6680572 -0.061032385 1.7320001 1.603803e-38
0.67424285 -0.064743817 1.7320002 1.5024251e-38
0.68549508 -0.064802729 1.7320004 1.5116829e-38
0.69539219 -0.064802729 1.7320004 1.4932437e-38
0.70517147 -0.066805713 1.7320001 1.4932435e-38
0.71424389 -0.065980956 1.7320002 1.5023895e-38
0.72348118 -0.06631086 1.7320002 1.5024268e-38
0.35244831 -0.054434292 1.7320001 8.3879988e-39
0.65651047 -0.051135242 1.7320001 1.4014825e-38
0.66475821 -0.053884454 1.7320002 1.4559719e-38
0.67383051 -0.056908578 1.7320001 1.4655494e-38
0.35464764 -0.044537149 1.7320001 8.4794812e-39
0.64590645 -0.044537146 1.7320004 1.3918262e-38
0.65486097 -0.047836192 1.7320001 1.3639913e-38
0.35464764 -0.036289528 1.7320001 8.4794504e-39
0.64496392 -0.034640003 1.7320004 1.3269685e-38
0.35794672 -0.02474286 1.7320001 8.7564044e-39
0.61609721 -0.022268575 1.7320001 1.4470734e-38
0.62516958 -0.026942223 1.7320001 1.4101596e-38
0.63176769 -0.028041907 1.7320001 1.3826112e-38
0.6416648 -0.028041907 1.7320001 1.3640979e-38
0.35794669 -0.018144764 1.7320001 9.03262e-39
0.56743622 -0.011546668 1.7320001 1.3640248e-38
0.57485908 -0.014020952 1.7320001 1.3917181e-38
0.585581 -0.015945397 1.7320001 1.4102668e-38
0.59547812 -0.018144764 1.7320001 1.4745534e-38
0.60702479 -0.018144764 1.7320001 1.456257e-38
0.61197335 -0.018144764 1.7320001 1.4379622e-38
0.36454478 -0.001649524 1.7320001 9.30743e-39
0.53609532 -0.001649524 1.7320001 1.4195229e-38
0.54599243 -0.0024742859 1.7320001 1.3734608e-38
0.5554772 -0.004536191 1.7320002 1.3365097e-38
0.5651269 -0.0069280006 1.7320002 1.3549487e-38
0.57238477 -0.0082476195 1.7320001 1.3915763e-38
0.36564445 0.0049485718 1.7320001 9.3988984e-39
0.48825908 0.0082476195 1.7320001 1.4653699e-38
0.49485719 0.0082476195 1.7320001 1.4746245e-38
0.51724356 0.0054198643 1.7320004 1.4102312e-38
0.52619815 0.0065980963 1.7320002 1.3918276e-38
0.53562397 0.0040059867 1.7320004 1.4194503e-38
0.54533261 0.0029691432 1.7320002 1.3734608e-38
0.55259049 0.001649524 1.7320001 1.3550569e-38
0.36784384 0.014845716 1.7320001 9.0319179e-39
0.48825908 0.014845716 1.7320002 1.4469676e-38
0.49650669 0.014433334 1.7320002 1.437891e-38
0.5064038 0.014845716 1.7320002 1.4195595e-38
0.51300192 0.011546668 1.7320001 1.4287783e-38
0.52949721 0.011546668 1.7320001 1.4011561e-38
0.5327962 0.011546668 1.7320001 1.3918649e-38
0.36784384 0.02144381 1.7320001 8.7563988e-39
0.37224257 0.026942223 1.7320001 8.6624109e-39
0.42557716 0.026392382 1.7320001 1.4285988e-38
0.43052575 0.024742857 1.7320001 1.4285267e-38
0.44372192 0.027217144 1.7320001 1.4193428e-38
0.45444381 0.027217144 1.7320001 1.4194866e-38
0.46285644 0.026722288 1.7320002 1.4561135e-38
0.47341341 0.026942223 1.7320001 1.4469664e-38
0.48413527 0.022268575 1.7320001 1.4469671e-38
0.49320766 0.02144381 1.7320001 1.4286357e-38
0.37444192 0.034640003 1.7320002 9.0294348e-39
0.40578288 0.036289524 1.7320001 1.2534629e-38
0.4145804 0.035739683 1.7320002 1.363991e-38
0.42392763 0.034227621 1.7320002 1.4285267e-38
0.43300003 0.035464764 1.7320001 1.3826088e-38
0.44372195 0.034639999 1.7320002 1.4010476e-38
0.45163965 0.033980191 1.7320002 1.3826815e-38
0.37774098 0.044537149 1.7320001 1.1617386e-38
0.40372097 0.044537146 1.7320002 1.262755e-38
0.41073149 0.044537149 1.7320001 1.2164797e-38
0.43547428 0.044537149 1.7320002 1.3363282e-38
0.44207242 0.042887621 1.7320001 1.3452266e-38
0.37774098 0.051135242 1.7320001 1.1705628e-38
0.38499889 0.056413718 1.7320002 1.4287058e-38
0.39423624 0.05484667 1.7320002 1.4192707e-38
0.40083432 0.052784763 1.7320001 1.3914686e-38
0.38433912 0.064802729 1.7320004 1.5850062e-38
0.39423621 0.061032385 1.7320001 1.3825359e-38
0.92373335 0.16990097 1.7320001 2.1759601e-38
0.87809658 0.17869842 1.7320001 2.304854e-38
0.88579434 0.17704891 1.7320002 2.2770877e-38
0.8948667 0.17897335 1.7320001 2.2586486e-38
0.90641338 0.17897335 1.7320001 2.2216623e-38
0.91589814 0.17691144 1.7320002 2.1940031e-38
0.92373341 0.17649907 1.7320002 2.138685e-38
0.8379581 0.18969525 1.7320001 2.2217706e-38
0.84620583 0.18969527 1.7320001 2.2126225e-38
0.85610294 0.18749589 1.7320001 2.2309177e-38
0.86600012 0.18639621 1.7320001 2.1847489e-38
0.87754673 0.18309715 1.7320001 2.2680124e-38
0.89569151 0.18309717 1.7320001 2.2310977e-38
0.90393913 0.18309715 1.7320001 2.1851075e-38
0.73403811 0.1995924 1.7320001 2.2954901e-38
0.74063623 0.1995924 1.7320001 2.2580022e-38
0.78682292 0.19794287 1.7320001 2.212371e-38
0.79342103 0.19519365 1.7320001 2.2495728e-38
0.80397797 0.19563353 1.7320002 2.2123696e-38
0.82971054 0.19464383 1.7320001 2.2124415e-38
0.83548391 0.19381906 1.7320001 2.2124419e-38
0.84290671 0.1929943 1.7320001 2.2309169e-38
0.73733717 0.20454097 1.7320001 2.2954178e-38
0.74434763 0.20577812 1.7320002 2.2401014e-38
0.7538324 0.20421107 1.7320002 2.2586487e-38
0.76592892 0.20399114 1.7320001 2.2309183e-38
0.77362674 0.20454097 1.7320002 2.2495731e-38
0.78132451 0.20399114 1.7320001 2.203116e-38
0.80991626 0.20289144 1.7320001 2.1201762e-38
0.81585455 0.20421107 1.7320002 2.1848911e-38
0.82311243 0.20454097 1.7320001 2.1849267e-38
0.7461347 0.21498796 1.7320001 2.2216264e-38
0.7505334 0.21773717 1.7320001 2.2031149e-38
0.25037241 -0.7113229 1.7410001 1.0689988e-38
0.25368857 -0.70303243 1.7410001 1.0320856e-38
0.25368857 -0.69640005 1.7410001 1.0229696e-38
0.2570048 -0.68479335 1.7410001 1.0415923e-38
0.25700477 -0.66489625 1.7410001 1.0874737e-38
0.25700477 -0.65494764 1.7410001 1.0783262e-38
0.25700477 -0.64831531 1.7410001 1.1058053e-38
0.26032096 -0.643341 1.7410001 1.0230451e-38
0.26363716 -0.63173431 1.7410001 1.0692146e-38
0.26474258 -0.62510192 1.7410001 1.0692158e-38
0.26695335 -0.61515343 1.7410001 1.0968037e-38
0.26695335 -0.60520482 1.7410001 1.0968381e-38
0.27026954 -0.6018886 1.7410001 1.1152417e-38
0.26695335 -0.59525627 1.7410001 1.096803e-38
0.27026954 -0.59525621 1.7410001 1.1152787e-38
0.26695335 -0.58696574 1.7410001 1.0875476e-38
0.27026957 -0.58530772 1.7410001 1.1059513e-38
0.27248034 -0.57535911 1.7410001 1.1152416e-38
0.27358574 -0.56541049 1.7410001 1.1152766e-38
0.27358574 -0.555462 1.7410001 1.078398e-38
0.27524382 -0.54551339 1.7410001 1.078469e-38
0.28353432 -0.49245432 1.7410001 1.0873304e-38
0.2851924 -0.48582193 1.7410001 1.0506695e-38
0.28685048 -0.47918954 1.7410001 1.0322661e-38
0.29099572 -0.47504431 1.7410001 1.023154e-38
0.29099572 -0.46675384 1.7410001 1.0506328e-38
0.28685048 -0.45266002 1.7410001 1.0138267e-38
0.29016668 -0.45929241 1.7410001 1.0597446e-38
0.28685048 -0.44768572 1.7410001 1.0138631e-38
0.29182476 -0.43607908 1.7410001 1.0412685e-38
0.29265383 -0.42530146 1.7410001 9.7702004e-39
0.2956937 -0.41618192 1.7410001 9.4946953e-39
0.2956937 -0.40623337 1.7410001 9.7691046e-39
0.29679906 -0.3929686 1.7410001 9.8591562e-39
0.30011526 -0.38302001 1.7410001 1.0135384e-38
0.30232608 -0.37638769 1.7410001 9.3110215e-39
0.30343145 -0.36312288 1.7410001 9.678002e-39
0.30508953 -0.35814857 1.7410001 9.6772915e-39
0.31006384 -0.3531743 1.7410001 9.6769398e-39
0.31006384 -0.34654197 1.7410001 9.4017794e-39
0.31006384 -0.33990955 1.7410001 9.4936191e-39
0.31006384 -0.31172192 1.7410001 9.4928919e-39
0.31338003 -0.30177337 1.7410001 9.3085286e-39
0.31669623 -0.28353429 1.7410001 9.58474e-39
0.31669623 -0.27358574 1.7410001 9.4921828e-39
0.32001239 -0.26363716 1.7410001 9.3085062e-39
0.32664478 -0.25285953 1.7410001 9.0326368e-39
0.32747382 -0.24456906 1.7410001 8.8478854e-39
0.32664478 -0.23379144 1.7410001 8.7556771e-39
0.32664478 -0.22550097 1.7410001 8.4787371e-39
0.329961 -0.21389431 1.7410001 8.1110364e-39
0.33327717 -0.21057811 1.7410001 8.3854625e-39
0.33438253 -0.20394573 1.7410001 8.2950549e-39
0.33438253 -0.19399717 1.7410001 8.1113993e-39
0.33410621 -0.18404858 1.7410001 8.2028719e-39
0.33548796 -0.17410001 1.7410001 8.3865471e-39
0.33659336 -0.16415146 1.7410001 8.5713041e-39
0.33990955 -0.15586096 1.7410001 8.9397433e-39
0.34322575 -0.15088667 1.7410001 9.1234003e-39
0.34488386 -0.1442543 1.7410001 9.2145015e-39
0.34433115 -0.13430573 1.7410001 9.1230359e-39
0.34322578 -0.12435715 1.7410001 9.1223311e-39
0.34322575 -0.11109239 1.7410001 8.6642186e-39
0.34654194 -0.10446001 1.7410001 8.8471455e-39
0.76769817 -0.10114381 1.7410001 1.51154e-38
0.77433056 -0.10280191 1.7410001 1.4472899e-38
0.80417621 -0.10114381 1.7410001 1.2350983e-38
0.81412482 -0.10280192 1.7410001 1.3826807e-38
0.82075721 -0.10446001 1.7410001 1.4378895e-38
0.75609148 -0.092853338 1.7410001 1.4930991e-38
0.7647965 -0.094096899 1.7410001 1.5022462e-38
0.7743305 -0.094511434 1.7410001 1.465476e-38
0.78386456 -0.094096914 1.7410001 1.4747315e-38
0.79375398 -0.093563952 1.7410002 1.4564013e-38
0.80417621 -0.094511434 1.7410001 1.2717231e-38
0.81365114 -0.095458917 1.7410002 1.3827519e-38
0.34985811 -0.087879054 1.7410001 9.031548e-39
0.75553882 -0.084010169 1.7410001 1.4839875e-38
0.764382 -0.084562868 1.7410001 1.4931707e-38
0.7743305 -0.084562868 1.7410001 1.4839165e-38
0.78380543 -0.085510351 1.7410002 1.502356e-38
0.79470152 -0.085510351 1.7410002 1.446931e-38
0.80376172 -0.08456286 1.7410001 1.2994162e-38
0.74543226 -0.074140549 1.7410002 1.5207586e-38
0.75443333 -0.074614294 1.7410001 1.5023916e-38
0.764382 -0.07793048 1.7410001 1.474876e-38
0.77764672 -0.07793048 1.7410001 1.4933866e-38
0.80583435 -0.076272383 1.7410001 1.355022e-38
0.34985813 -0.06466572 1.7410001 8.571667e-39
0.68368804 -0.062454924 1.7410001 1.5300135e-38
0.69474196 -0.063007623 1.7410001 1.5024641e-38
0.70634866 -0.063007623 1.7410001 1.4748389e-38
0.71463907 -0.061349526 1.7410001 1.4748041e-38
0.72458768 -0.061349526 1.7410001 1.4932071e-38
0.73453629 -0.064665727 1.7410002 1.5207578e-38
0.74365568 -0.067152858 1.7410001 1.4931722e-38
0.75111717 -0.067981906 1.7410001 1.4932101e-38
0.34985811 -0.056375243 1.7410001 8.2043096e-39
0.3531743 -0.051400956 1.7410001 8.1125022e-39
0.67567384 -0.05223 1.7410001 1.4655135e-38
0.6852079 -0.054302625 1.7410001 1.5300496e-38
0.69474202 -0.05471715 1.7410001 1.5116825e-38
0.70469058 -0.05471715 1.7410001 1.4933157e-38
0.71416539 -0.055664632 1.7410002 1.4656211e-38
0.72458768 -0.056375246 1.7410001 1.4748406e-38
0.3531743 -0.044768579 1.7410001 8.5713181e-39
0.65693736 -0.04410534 1.7410001 1.3179997e-38
0.66531074 -0.044354051 1.7410001 1.336332e-38
0.67484486 -0.044768576 1.7410001 1.4563654e-38
0.68396431 -0.047255717 1.7410001 1.5207945e-38
0.69474196 -0.047255717 1.7410001 1.5207946e-38
0.70303243 -0.048084766 1.7410001 1.5024991e-38
0.7113229 -0.048084766 1.7410001 1.4841666e-38
0.3542797 -0.034820002 1.7410001 8.571639e-39
0.65589517 -0.034346264 1.7410002 1.2903421e-38
0.66555947 -0.036809716 1.7410001 1.382538e-38
0.67318672 -0.038136192 1.7410001 1.4655857e-38
0.68147719 -0.038136192 1.7410001 1.520831e-38
0.35649049 -0.024871429 1.7410001 8.6645759e-39
0.62731278 -0.022660635 1.7410001 1.4101959e-38
0.63505054 -0.02431873 1.7410001 1.391794e-38
0.64389372 -0.027082225 1.7410001 1.3641348e-38
0.6549477 -0.028187623 1.7410001 1.3733521e-38
0.35870129 -0.014922859 1.7410001 9.1244527e-39
0.57867527 -0.011606667 1.7410001 1.400902e-38
0.58530772 -0.011606667 1.7410001 1.4010468e-38
0.59525621 -0.013264763 1.7410001 1.4286716e-38
0.6045416 -0.014259621 1.7410001 1.4654409e-38
0.61598241 -0.015751906 1.7410001 1.4379269e-38
0.62510192 -0.017410001 1.7410001 1.4194153e-38
0.63339245 -0.018239049 1.7410001 1.3918286e-38
0.35980669 -0.0082904771 1.7410001 9.3074048e-39
0.36312288 -0.0033161908 1.7410001 9.3070727e-39
0.56706858 -0.0016580954 1.7410001 1.3641329e-38
0.57583284 -0.0040268032 1.7410002 1.3825016e-38
0.58530766 -0.0049742861 1.7410001 1.3917925e-38
0.59525621 -0.0053888098 1.7410001 1.4102689e-38
0.60354674 -0.0066323816 1.7410001 1.4379978e-38
0.36422831 0.0049742865 1.7410001 9.4907395e-39
0.538881 0.0082904771 1.7410001 1.4010478e-38
0.54551339 0.0082904771 1.7410001 1.3825725e-38
0.55593568 0.0059217694 1.7410002 1.3550211e-38
0.56541049 0.0049742865 1.7410001 1.3550216e-38
0.57441163 0.0045005446 1.7410002 1.3641701e-38
0.36643907 0.014922859 1.7410001 9.2159448e-39
0.49908671 0.018239049 1.7410001 1.4378555e-38
0.5176574 0.015586096 1.7410001 1.4104824e-38
0.52561623 0.014922857 1.7410001 1.4010835e-38
0.53603858 0.015870342 1.7410002 1.3825733e-38
0.54551345 0.014922859 1.7410001 1.3549495e-38
0.55546194 0.014922859 1.7410001 1.3548416e-38
0.56541044 0.014922857 1.7410001 1.3273274e-38
0.57204288 0.014922859 1.7410001 1.3180725e-38
0.36809719 0.024871429 1.7410001 9.1233751e-39
0.47918954 0.028187621 1.7410001 1.437819e-38
0.48637468 0.025976827 1.7410001 1.4378195e-38
0.49624428 0.025818912 1.7410002 1.4195232e-38
0.50571913 0.024871431 1.7410001 1.4287412e-38
0.51566774 0.024871431 1.7410001 1.3918983e-38
0.52561617 0.023213334 1.7410001 1.3548067e-38
0.5339067 0.021555239 1.7410001 1.3640625e-38
0.54219717 0.021555239 1.7410001 1.3551283e-38
0.55712003 0.021555239 1.7410001 1.3640606e-38
0.56541049 0.021555241 1.7410001 1.3087438e-38
0.57204288 0.021555239 1.7410001 1.2901238e-38
0.36975527 0.034820002 1.7410001 9.3978082e-39
0.37307146 0.036478095 1.7410001 8.843561e-39
0.4261305 0.038136192 1.7410001 1.4377104e-38
0.43276289 0.038136192 1.7410001 1.3826086e-38
0.45846337 0.03564905 1.7410001 1.3643137e-38
0.4659248 0.034820002 1.7410001 1.437746e-38
0.47587338 0.034820002 1.7410001 1.41927e-38
0.48582193 0.034820002 1.7410001 1.3916484e-38
0.49535596 0.034405477 1.7410001 1.3272192e-38
0.50571907 0.033161908 1.7410001 1.3091391e-38
0.51400959 0.033161908 1.7410001 1.3915742e-38
0.36975527 0.043110482 1.7410001 9.4903415e-39
0.37472957 0.044768572 1.7410001 8.6627921e-39
0.40954956 0.044768576 1.7410001 1.1245368e-38
0.41784 0.044768572 1.7410001 1.3274715e-38
0.4261305 0.044768572 1.7410001 1.3917203e-38
0.43276292 0.044768579 1.7410001 1.3732452e-38
0.44735414 0.046095051 1.7410001 1.3823933e-38
0.4555617 0.044354048 1.7410001 1.3456598e-38
0.46260861 0.043110482 1.7410001 1.3734607e-38
0.47255719 0.041452385 1.7410001 1.4375648e-38
0.48913813 0.041452385 1.7410001 1.4283807e-38
0.36975527 0.056375243 1.7410001 9.7647956e-39
0.37705088 0.05405391 1.7410001 9.954275e-39
0.40623337 0.05471715 1.7410001 1.3545902e-38
0.41535288 0.05223 1.7410001 1.3732433e-38
0.42723593 0.052506354 1.7410001 1.4466776e-38
0.43773717 0.05471715 1.7410001 1.4194865e-38
0.44602767 0.05471715 1.7410001 1.4287423e-38
0.45266002 0.054717146 1.7410001 1.4653319e-38
0.36975527 0.063007623 1.7410001 1.3270365e-38
0.37733513 0.064665727 1.7410002 1.4930972e-38
0.38633621 0.063007623 1.7410001 1.4192714e-38
0.39581111 0.06466572 1.7410002 1.511357e-38
0.40402257 0.062454924 1.7410001 1.3914301e-38
0.43773717 0.063007623 1.7410001 1.4378544e-38
0.44602767 0.062676005 1.7410001 1.4195575e-38
0.45266002 0.066323817 1.7410001 1.4284898e-38
0.38633621 0.072127149 1.7410001 1.8068505e-38
0.3929686 0.0712981 1.7410001 1.8068502e-38
0.40623337 0.076272383 1.7410001 1.9258786e-38
0.91526866 0.16746762 1.7410001 2.3046378e-38
0.92355913 0.16746764 1.7410001 2.2770156e-38
0.9318496 0.16580953 1.7410001 2.2585393e-38
0.86718386 0.17741621 1.7410001 2.2494642e-38
0.87381625 0.17741621 1.7410001 2.2493571e-38
0.88293576 0.17410001 1.7410001 2.258685e-38
0.89371341 0.17244193 1.7410001 2.2863426e-38
0.90413576 0.1750475 1.7410002 2.2586126e-38
0.91313684 0.17315254 1.7410002 2.2216982e-38
0.92190099 0.17078382 1.7410001 2.1942917e-38
0.93350768 0.17078382 1.7410001 2.1850363e-38
0.80417627 0.18736479 1.7410001 2.2678323e-38
0.8108086 0.18736477 1.7410001 2.2771237e-38
0.83568007 0.18736477 1.7410001 2.2217708e-38
0.84479958 0.18653572 1.7410001 2.2401377e-38
0.85309005 0.18653573 1.7410001 2.2585047e-38
0.86469674 0.18239048 1.7410001 2.2494286e-38
0.87381625 0.18239048 1.7410001 2.2495731e-38
0.73702335 0.19482622 1.7410001 2.314109e-38
0.7450375 0.19510256 1.7410001 2.2863073e-38
0.75360435 0.19648431 1.7410001 2.2863793e-38
0.76438195 0.19598688 1.7410001 2.2771229e-38
0.77433056 0.19494466 1.7410002 2.2770877e-38
0.78475291 0.19494466 1.7410002 2.2216264e-38
0.79422778 0.19233906 1.7410001 2.2493933e-38
0.80417627 0.19068097 1.7410001 2.2770876e-38
0.81459862 0.19399717 1.7410002 2.2217336e-38
0.82407343 0.19565526 1.7410001 2.203187e-38
0.83269548 0.19267069 1.7410001 2.2124785e-38
0.72790384 0.20394573 1.7410001 2.1943629e-38
0.73122007 0.20228763 1.7410001 2.2402456e-38
0.74780101 0.20062953 1.7410001 2.2218066e-38
0.75443339 0.20062953 1.7410001 2.2587208e-38
0.76438195 0.20145857 1.7410001 2.2401017e-38
0.77433056 0.20062953 1.7410001 2.2586849e-38
0.78427911 0.20062953 1.7410001 2.2677596e-38
0.8157829 0.20062953 1.7410001 2.0650025e-38
0.82407343 0.20062953 1.7410001 2.1941105e-38
0.83070576 0.20062953 1.7410001 2.2121539e-38
0.75443339 0.22384287 1.7410001 2.2398489e-38
0.24961051 -0.71532673 1.7590002 7.1988079e-39
0.25166669 -0.7116667 1.7500001 1.0414489e-38
0.25166672 -0.7050001 1.7500002 1.0230091e-38
0.25342494 -0.69511193 1.7545002 1.0046776e-38
0.2496105 -0.68349719 1.7590001 1.0046769e-38
0.25460234 -0.68459779 1.7538573 1.032372e-38
0.25506872 -0.67546207 1.7533751 1.0507397e-38
0.25460234 -0.66550606 1.7538573 1.0507038e-38
0.25532788 -0.65416694 1.7522502 1.0599594e-38
0.25810224 -0.64553338 1.756 1.0505968e-38
0.26166669 -0.64166671 1.7500001 1.0321907e-38
0.26267597 -0.63576978 1.7567501 1.0506675e-38
0.26380745 -0.62425166 1.7554001 1.0599248e-38
0.2640062 -0.61490619 1.7545002 1.050812e-38
0.26378191 -0.60436481 1.7530001 1.05996e-38
0.2640062 -0.59485483 1.7545002 1.0599242e-38
0.26735097 -0.58482909 1.7545002 1.0692144e-38
0.26971334 -0.57460672 1.7590002 1.0692869e-38
0.27166671 -0.57500005 1.7500002 1.0968737e-38
0.26971334 -0.56455529 1.7590002 1.0875465e-38
0.27166671 -0.56500006 1.7500002 1.0968019e-38
0.27236524 -0.55475193 1.7545 1.0783978e-38
0.27486739 -0.54389077 1.7545 1.078397e-38
0.27713394 -0.53462559 1.755625 1.0875828e-38
0.2816667 -0.5316667 1.7500001 1.1060219e-38
0.27842459 -0.52434963 1.7590001 1.087512e-38
0.2816667 -0.5266667 1.7500001 1.0875475e-38
0.27976477 -0.51429814 1.7590002 1.1059133e-38
0.2816667 -0.51166672 1.7500001 1.1059846e-38
0.27976477 -0.50759715 1.7590001 1.1058784e-38
0.28202885 -0.50397408 1.7522502 1.0966231e-38
0.27864796 -0.49196166 1.7590002 1.069036e-38
0.28311527 -0.49419528 1.7590002 1.0690364e-38
0.27976477 -0.48749432 1.7590001 1.0690719e-38
0.28405765 -0.48457623 1.7545002 1.0506331e-38
0.28705677 -0.47508726 1.7538573 1.0321575e-38
0.28739956 -0.46452054 1.7545002 1.0321936e-38
0.28619978 -0.45390981 1.7522502 1.0137908e-38
0.28721279 -0.44369623 1.7554001 1.0137926e-38
0.28845224 -0.43406945 1.7575001 1.0137903e-38
0.29166669 -0.43333337 1.7500001 1.0229725e-38
0.28817946 -0.42406821 1.7572001 9.7698403e-39
0.29166669 -0.42500001 1.7500001 9.6783691e-39
0.2898162 -0.41378388 1.7590002 9.3106208e-39
0.29300004 -0.41566667 1.7500002 9.3106544e-39
0.29473135 -0.40452465 1.7533751 9.5847119e-39
0.29742527 -0.39517814 1.7545002 9.768034e-39
0.29948407 -0.3848055 1.7567501 9.6769146e-39
0.29986763 -0.3769286 1.7590001 9.5854546e-39
0.30264363 -0.37337887 1.7518002 9.4946925e-39
0.29986763 -0.3635267 1.7590002 9.4929045e-39
0.30327573 -0.36426336 1.7545002 9.5854574e-39
0.29986763 -0.35515052 1.7590001 9.4925457e-39
0.30516514 -0.3540116 1.7533751 9.4007088e-39
0.29986763 -0.34677431 1.7590001 9.4921688e-39
0.30562231 -0.34403452 1.7536001 9.3088593e-39
0.30684629 -0.33454859 1.7551429 9.2166679e-39
0.3116667 -0.33500004 1.7500002 9.5851113e-39
0.3079446 -0.32533279 1.7554001 9.3088803e-39
0.3116667 -0.32500002 1.7500002 9.6765811e-39
0.30762747 -0.31497794 1.7536001 9.1251855e-39
0.3116667 -0.31833336 1.7500001 9.5850973e-39
0.30991906 -0.30656862 1.7590002 9.0329969e-39
0.3116667 -0.30500001 1.7500002 9.1252052e-39
0.30991906 -0.29819238 1.7590001 9.033713e-39
0.31386766 -0.2955029 1.7530001 9.2177483e-39
0.3149448 -0.28646576 1.7590001 9.5836582e-39
0.31578243 -0.27725193 1.7590001 9.6754965e-39
0.31747669 -0.26568145 1.7545002 9.2163246e-39
0.31997049 -0.25631145 1.7590002 8.9404425e-39
0.32333088 -0.25459221 1.7518002 8.9411572e-39
0.31997049 -0.24626003 1.7590002 8.8471679e-39
0.32360908 -0.24520716 1.7515001 8.7553324e-39
0.31997049 -0.23955907 1.7590001 9.0304704e-39
0.32416052 -0.23560429 1.7545002 8.571653e-39
0.32475662 -0.22501975 1.7538573 8.3869142e-39
0.32690507 -0.2161105 1.7551429 8.1106791e-39
0.32667145 -0.20605431 1.7590002 8.5694978e-39
0.33143798 -0.20497568 1.7538573 8.2950605e-39
0.33143798 -0.19590601 1.7538573 8.2950633e-39
0.32667145 -0.18762669 1.7590001 8.3865471e-39
0.33084428 -0.18547575 1.7545002 8.3869114e-39
0.33263651 -0.1755143 1.7551429 8.2943529e-39
0.33447337 -0.16556288 1.756 8.2954305e-39
0.33752811 -0.15539859 1.7545002 8.6645773e-39
0.3416667 -0.15166667 1.7500001 8.9404538e-39
0.33725971 -0.14772511 1.7560003 8.6645717e-39
0.34216386 -0.14425825 1.7525716 9.0315368e-39
0.34146005 -0.13577375 1.7538573 8.9397139e-39
0.34087002 -0.12532145 1.7545002 8.755338e-39
0.3416667 -0.11500001 1.7500002 8.7557052e-39
0.34480074 -0.10475525 1.7538573 8.663134e-39
0.34696385 -0.095757835 1.7551429 8.7549709e-39
0.34755385 -0.086889528 1.7545002 8.755687e-39
0.35012478 -0.082086675 1.7590001 8.8478882e-39
0.78833336 -0.081666671 1.7500001 1.511613e-38
0.79500008 -0.081666671 1.7500002 1.5207227e-38
0.35012478 -0.07538572 1.7590002 8.755694e-39
0.76666671 -0.073333338 1.7500001 1.4931717e-38
0.77541667 -0.074583337 1.7500001 1.4840613e-38
0.78541672 -0.074583337 1.7500001 1.4933128e-38
0.79500008 -0.074999996 1.7500001 1.4931348e-38
0.80458337 -0.074583329 1.7500001 1.2533564e-38
0.81166673 -0.071666673 1.7500001 1.4378171e-38
0.7458334 -0.062500007 1.7500001 1.4931359e-38
0.75547624 -0.064047627 1.7500002 1.484025e-38
0.7650001 -0.065000005 1.7500001 1.4931717e-38
0.77607584 -0.065537743 1.7533751 1.5116105e-38
0.78585017 -0.065204643 1.755625 1.5024272e-38
0.79526693 -0.06481386 1.7532729 1.4838794e-38
0.80523056 -0.065569259 1.7525716 1.2256968e-38
0.81366599 -0.064593904 1.7572001 1.4011917e-38
0.35347527 -0.051932383 1.7590001 7.7451462e-39
0.71833336 -0.05166667 1.7500001 1.4656932e-38
0.72500008 -0.05166667 1.7500002 1.4839889e-38
0.7359525 -0.054523818 1.7500002 1.5116113e-38
0.7451424 -0.055554569 1.7525716 1.5207582e-38
0.75449944 -0.054753695 1.755625 1.5023549e-38
0.76467544 -0.055664174 1.757875 1.5023922e-38
0.77521646 -0.055701673 1.7589999 1.5207569e-38
0.7868036 -0.056399684 1.7590001 1.5023905e-38
0.79599768 -0.055587914 1.7580999 1.4747304e-38
0.8052007 -0.054761365 1.7577144 1.3359684e-38
0.35347527 -0.045231432 1.7590002 8.5713111e-39
0.68722236 -0.042777777 1.7500002 1.5207957e-38
0.69433337 -0.043000005 1.7500002 1.5208309e-38
0.7050001 -0.043333337 1.7500002 1.5116827e-38
0.71452385 -0.045000002 1.7500002 1.4933872e-38
0.72471374 -0.045047622 1.7520001 1.4932091e-38
0.73423421 -0.044618104 1.7538573 1.539162e-38
0.74506223 -0.045231428 1.7589999 1.5208301e-38
0.75497407 -0.045789845 1.7590001 1.5207936e-38
0.76558387 -0.048581909 1.7590001 1.5207945e-38
0.80243909 -0.048581909 1.7590001 1.2621826e-38
0.35423765 -0.035098575 1.7545002 8.5720076e-39
0.66611117 -0.032777783 1.7500002 1.3917929e-38
0.67566675 -0.033000004 1.7500002 1.4748404e-38
0.68500012 -0.034583334 1.7500001 1.5116115e-38
0.69499999 -0.035 1.7500001 1.5208296e-38
0.70458335 -0.035416666 1.7500001 1.5024257e-38
0.71523583 -0.034645036 1.7564287 1.530014e-38
0.72537822 -0.035180002 1.7589999 1.520758e-38
0.73584837 -0.035598811 1.7589999 1.5116462e-38
0.74380577 -0.035180002 1.7590001 1.5300496e-38
0.75553244 -0.03853048 1.7590001 1.5300858e-38
0.35500002 -0.025000002 1.7500002 8.756417e-39
0.64583337 -0.022500003 1.7500001 1.3734241e-38
0.65500003 -0.023333337 1.7500002 1.4010108e-38
0.66541666 -0.024583336 1.7500001 1.4380331e-38
0.67500001 -0.025000002 1.7500001 1.4747683e-38
0.68500012 -0.025000002 1.7500001 1.5023562e-38
0.69608521 -0.025544766 1.7551429 1.5023916e-38
0.7052753 -0.025128577 1.7590001 1.4932082e-38
0.7144891 -0.027641429 1.7590001 1.5300514e-38
0.73878002 -0.028479049 1.7590001 1.5116112e-38
0.74548101 -0.028479049 1.7590001 1.5117185e-38
0.35633335 -0.014333335 1.7500002 9.3999619e-39
0.60500002 -0.015000001 1.7500001 1.4837367e-38
0.61500001 -0.011666669 1.7500002 1.4379618e-38
0.62500006 -0.0125 1.7500001 1.4286351e-38
0.63500005 -0.013333334 1.7500002 1.4010475e-38
0.64500004 -0.014999999 1.7500001 1.3826803e-38
0.65500003 -0.015000001 1.7500001 1.437782e-38
0.66453624 -0.015487212 1.7512859 1.44711e-38
0.67398685 -0.01506143 1.7575001 1.4563661e-38
0.68517244 -0.018427622 1.7590002 1.4748051e-38
0.69522381 -0.018427622 1.7590002 1.4931719e-38
0.7019248 -0.01842762 1.7590001 1.5299409e-38
0.35697097 -0.0050014295 1.7515001 9.3074244e-39
0.36166668 -0.0033333336 1.7500001 9.3074342e-39
0.59833336 -0.0016666668 1.7500001 1.3917933e-38
0.60666668 -0.0016666668 1.7500001 1.4102316e-38
0.61500007 -0.0050000004 1.7500001 1.4379266e-38
0.62500012 -0.0049999999 1.7500001 1.3918275e-38
0.63536102 -0.0050009522 1.751 1.3825725e-38
0.6450001 -0.0050000004 1.7500001 1.4009044e-38
0.65501481 -0.0050100004 1.7545002 1.3918282e-38
0.66422534 -0.0054391674 1.757875 1.4286343e-38
0.35757956 0.0050128577 1.7545002 9.2166679e-39
0.36250001 0.0058333338 1.7500001 9.4914611e-39
0.58541667 0.0054166666 1.7500001 1.3457668e-38
0.59500003 0.0049999999 1.7500001 1.3365833e-38
0.60500008 0.0050000004 1.7500001 1.3273634e-38
0.61500007 0.0049999994 1.7500001 1.3363679e-38
0.62587953 0.0045434022 1.7551429 1.3364385e-38
0.63530451 0.0050238096 1.757 1.3365466e-38
0.64449525 0.0050244909 1.7577144 1.3641339e-38
0.65278453 0.0027920639 1.7590002 1.3917573e-38
0.35682577 0.015077144 1.7590002 9.0329927e-39
0.36228099 0.015025715 1.753 9.2163078e-39
0.57833338 0.015000001 1.7500002 1.3087812e-38
0.58500004 0.015000001 1.7500001 1.2720825e-38
0.59500009 0.015000001 1.7500001 1.2537146e-38
0.60493416 0.014550748 1.7525716 1.2535695e-38
0.61557585 0.015070477 1.758 1.271829e-38
0.62318861 0.015077144 1.7590001 1.2624299e-38
0.63491529 0.011726668 1.7590002 1.2261293e-38
0.36307219 0.025386477 1.7536001 9.2159434e-39
0.5266667 0.028333336 1.7500001 1.2352747e-38
0.5356667 0.027000004 1.7500002 1.3178565e-38
0.54500002 0.025416669 1.7500001 1.2813009e-38
0.55458337 0.025416669 1.7500001 1.3273618e-38
0.56500006 0.026666671 1.7500002 1.2901975e-38
0.57500005 0.025555557 1.7500002 1.2625368e-38
0.58488601 0.025048578 1.753 1.2625402e-38
0.59476084 0.025110003 1.7575001 1.2627903e-38
0.60409087 0.023118287 1.7590001 1.2443138e-38
0.36545107 0.034774672 1.7554001 9.3070587e-39
0.50500005 0.038333334 1.7500002 1.3366194e-38
0.51500005 0.038333334 1.7500002 1.4010139e-38
0.52500004 0.035 1.7500001 1.3455126e-38
0.53404772 0.034523811 1.7500002 1.382427e-38
0.54479772 0.035371605 1.7532729 1.4009403e-38
0.55445302 0.034549527 1.7512859 1.3825711e-38
0.56316447 0.035488456 1.7533751 1.3825715e-38
0.5734899 0.034063175 1.7590001 1.3642036e-38
0.59135908 0.031829525 1.7590001 1.4009026e-38
0.36624575 0.045154292 1.756 9.399592e-39
0.3716667 0.048333336 1.7500001 9.5829155e-39
0.46633339 0.046333339 1.7500002 1.4285616e-38
0.47500002 0.045416672 1.7500001 1.4191625e-38
0.48500004 0.044999998 1.7500001 1.4193783e-38
0.49541673 0.045416668 1.7500001 1.4562198e-38
0.50500005 0.045000006 1.7500001 1.4469645e-38
0.51491445 0.044614404 1.7511251 1.4193786e-38
0.52501225 0.045151073 1.755625 1.4470733e-38
0.53481978 0.045650244 1.7589999 1.4193779e-38
0.54445243 0.044812623 1.7589999 1.4285264e-38
0.55402523 0.044274159 1.7590001 1.4286335e-38
0.56455529 0.044274155 1.7590001 1.4563282e-38
0.57125622 0.041880954 1.7590001 1.4194489e-38
0.36563879 0.055533051 1.7563 9.8551934e-39
0.37500003 0.05583334 1.7500001 9.2134351e-39
0.41500002 0.057000007 1.7500002 1.4467857e-38
0.42547622 0.055952389 1.7500002 1.4653321e-38
0.4341667 0.05583334 1.7500001 1.4654407e-38
0.45833337 0.055000003 1.7500002 1.4928468e-38
0.46458334 0.054583337 1.7500001 1.4470008e-38
0.4746975 0.055100005 1.753 1.4470367e-38
0.48457938 0.055363338 1.7509001 1.4837717e-38
0.49500003 0.055000007 1.7500001 1.4287405e-38
0.50419915 0.055097148 1.7530001 1.419557e-38
0.51362807 0.053272571 1.7590001 1.4378547e-38
0.52267432 0.051932383 1.7590001 1.4287073e-38
0.53447372 0.055664174 1.757875 1.3087798e-38
0.54445243 0.054325584 1.7590001 1.3732454e-38
0.55115336 0.051932383 1.7590001 1.3735334e-38
0.56455529 0.05360762 1.7590001 1.1801736e-38
0.58130765 0.055282861 1.7590001 8.8493511e-39
0.36582825 0.063260578 1.7572001 1.3173114e-38
0.37261385 0.063500479 1.7545002 1.2619618e-38
0.40583336 0.067500003 1.7500001 1.5294352e-38
0.41499999 0.065000005 1.7500001 1.4285998e-38
0.42485654 0.064627267 1.7511251 1.4655131e-38
0.43444547 0.066006906 1.7545 1.4469317e-38
0.44583336 0.067500003 1.7500001 1.447072e-38
0.45633337 0.065000005 1.7500002 1.42849e-38
0.46373194 0.065058574 1.7515001 1.3733168e-38
0.47367364 0.064915478 1.7589999 1.3550937e-38
0.4851912 0.063577622 1.75675 1.3549502e-38
0.49473181 0.065117151 1.753 1.1242099e-38
0.50394517 0.06522572 1.756 1.0687507e-38
0.53833336 0.061666671 1.7500001 9.1266443e-39
0.39583337 0.07416667 1.7500001 1.8988652e-38
0.40452382 0.074047618 1.7500002 1.8708824e-38
0.41652042 0.073150866 1.7536001 1.7876918e-38
0.42541185 0.074641906 1.7572001 1.8336453e-38
0.43351102 0.073649056 1.7575001 1.649255e-38
0.44543514 0.074311309 1.7533751 1.3640257e-38
0.45500007 0.074999996 1.7500001 1.1336451e-38
0.46605131 0.074715629 1.7590001 9.3992431e-39
0.47241718 0.072035246 1.7590001 9.8584416e-39
0.49419528 0.072035246 1.7590002 8.1949588e-39
0.44781098 0.081876673 1.7545002 1.8984685e-38
0.45166668 0.081666671 1.7500001 1.8613027e-38
0.89792764 0.15914764 1.7590001 2.2770147e-38
0.90295339 0.1574724 1.7590001 2.2770151e-38
0.91970575 0.15914764 1.7590001 2.3048912e-38
0.92640674 0.15914764 1.7590001 2.2771956e-38
0.93750328 0.15831469 1.7572001 2.2494648e-38
0.9431591 0.15579715 1.7590001 2.2954185e-38
0.88955146 0.16752383 1.7590001 2.2955986e-38
0.89554179 0.16592394 1.7563 2.286307e-38
0.90581495 0.16594276 1.755625 2.2862713e-38
0.9162659 0.16552608 1.755625 2.2955629e-38
0.92539954 0.16333281 1.7525716 2.2678684e-38
0.93416679 0.16250001 1.7500001 2.2402089e-38
0.75553244 0.17925051 1.7590002 2.3233297e-38
0.81500006 0.17833334 1.7500001 2.3047103e-38
0.82566935 0.17818359 1.7567501 2.295562e-38
0.83594388 0.17925051 1.7590002 2.2770869e-38
0.84527099 0.1774224 1.7575001 2.2586131e-38
0.85569787 0.17633884 1.756 2.2770866e-38
0.86499089 0.17616868 1.7533751 2.240173e-38
0.87500012 0.17500001 1.7500002 2.2217701e-38
0.88446271 0.17272073 1.7522502 2.2495371e-38
0.90666676 0.17166668 1.7500001 2.2679043e-38
0.72761178 0.1881851 1.7590002 2.2771599e-38
0.73557776 0.18660681 1.7533751 2.3232936e-38
0.74476373 0.18535039 1.7533751 2.314038e-38
0.75487798 0.18537545 1.7536001 2.3047824e-38
0.76612741 0.18588813 1.7545 2.304782e-38
0.77531976 0.18546931 1.7545 2.3047104e-38
0.78545785 0.18562859 1.756 2.3047821e-38
0.79494321 0.18649365 1.7551429 2.2955267e-38
0.80559224 0.18487383 1.75675 2.2862713e-38
0.81562483 0.18398358 1.7522501 2.286379e-38
0.82500005 0.18500003 1.7500001 2.2586845e-38
0.8345834 0.18458335 1.7500001 2.2310261e-38
0.84500003 0.18333334 1.7500002 2.2585766e-38
0.85583341 0.1825 1.7500001 2.2954181e-38
0.86416674 0.18333334 1.7500001 2.258648e-38
0.72872859 0.19265239 1.7590001 2.2958507e-38
0.73599446 0.19495942 1.7533751 2.2955983e-38
0.74500006 0.19333334 1.7500001 2.3141093e-38
0.75583339 0.19250001 1.7500001 2.295635e-38
0.76500005 0.193 1.7500002 2.304782e-38
0.77333337 0.19166668 1.7500001 2.2863071e-38
0.78500003 0.19166669 1.7500002 2.2770521e-38
0.81833339 0.19166668 1.7500001 2.2586853e-38
0.82666671 0.19166668 1.7500001 2.2217705e-38
0.83166671 0.19166668 1.7500001 2.1848568e-38
0.73166674 0.20166668 1.7500001 2.1666688e-38
0.24752001 -0.72235435 1.7680001 2.315336e-39
0.24752001 -0.71561909 1.7680001 5.2630374e-39
0.25088763 -0.71225148 1.7680001 8.2100816e-39
0.25088763 -0.70551628 1.7680001 8.6663864e-39
0.25088763 -0.69541335 1.7680001 9.862738e-39
0.24752001 -0.68531054 1.7680001 9.9538672e-39
0.25088763 -0.68194288 1.7680001 1.0137908e-38
0.25088763 -0.67857528 1.7680001 1.0228667e-38
0.25762287 -0.6432153 1.7680001 1.0414491e-38
0.2609905 -0.64153147 1.7680001 1.0323367e-38
0.25762287 -0.63816386 1.7680001 9.957107e-39
0.2609905 -0.63479626 1.7680001 1.0416643e-38
0.2609905 -0.62637722 1.7680001 1.023118e-38
0.2609905 -0.61459059 1.7680001 9.9538784e-39
0.2609905 -0.60448766 1.7680001 1.0321583e-38
0.26211303 -0.59438485 1.7680001 1.0322657e-38
0.2666032 -0.58428192 1.7680001 1.0416286e-38
0.26772574 -0.57586288 1.7680001 1.0324457e-38
0.26772574 -0.56744385 1.7680001 1.0968028e-38
0.27109334 -0.56070858 1.7680001 1.0783624e-38
0.27109334 -0.55565715 1.7680001 1.0691427e-38
0.27446097 -0.5337677 1.7680001 1.078364e-38
0.27670607 -0.52366483 1.7680001 1.0783279e-38
0.27782863 -0.51356196 1.7680001 1.0967666e-38
0.28119621 -0.5034591 1.7680001 1.0873678e-38
0.2778286 -0.48662099 1.7680001 1.0874387e-38
0.28231877 -0.48437592 1.7680001 1.0781115e-38
0.28288004 -0.47651815 1.768 1.0230101e-38
0.28456384 -0.46978289 1.7680001 1.0323017e-38
0.29129907 -0.40748191 1.7680001 9.4013955e-39
0.29803431 -0.39232764 1.7680001 9.6769104e-39
0.29803431 -0.38559243 1.7680001 9.6769034e-39
0.30140191 -0.37380576 1.7680001 9.4946911e-39
0.30140191 -0.35191622 1.7680001 9.492166e-39
0.30140191 -0.34349716 1.7680001 9.4921702e-39
0.30364701 -0.33507812 1.7680001 9.3081307e-39
0.30589208 -0.32497528 1.7680001 9.3088593e-39
0.30813715 -0.31150478 1.7680001 9.0330053e-39
0.30813715 -0.30140191 1.7680001 9.0333444e-39
0.30813715 -0.29466668 1.7680001 9.3999816e-39
0.31150478 -0.29466668 1.7680001 9.4925429e-39
0.31150478 -0.28793144 1.7680001 9.4903975e-39
0.31487241 -0.2761448 1.7680001 9.4911038e-39
0.31599495 -0.26435813 1.7680001 9.032641e-39
0.31824002 -0.25425526 1.7680001 8.8482483e-39
0.31824002 -0.24752001 1.7680001 8.6631368e-39
0.32160765 -0.23404956 1.7680001 8.4783812e-39
0.32497525 -0.21384382 1.7680001 8.1103217e-39
0.32581717 -0.20289907 1.7680001 8.3854611e-39
0.32722035 -0.19363812 1.7680001 8.2946948e-39
0.32722038 -0.18353525 1.7680001 8.3861898e-39
0.32834288 -0.17343239 1.7680001 8.7546023e-39
0.33171049 -0.17174858 1.7680001 8.4787371e-39
0.33171049 -0.16669716 1.7680001 8.3869002e-39
0.33507812 -0.15659429 1.7680001 8.2968668e-39
0.33592001 -0.14564954 1.7680001 8.6652892e-39
0.33844575 -0.13638858 1.7680001 8.8482385e-39
0.33844572 -0.12796953 1.7680001 8.7556898e-39
0.34181339 -0.11618286 1.7680001 8.7553366e-39
0.34181336 -0.10944763 1.7680001 8.5713097e-39
0.34405845 -0.09597715 1.7680001 8.6631396e-39
0.34630355 -0.085874289 1.7680001 8.5712845e-39
0.34854859 -0.079139054 1.7680001 8.6634857e-39
0.35191625 -0.065668575 1.7680001 8.4798287e-39
0.35191625 -0.055565715 1.7680001 8.2035824e-39
0.77286863 -0.052198097 1.7680001 1.5024275e-38
0.7863391 -0.053040002 1.7680001 1.5023181e-38
0.81552505 -0.055565715 1.7680001 1.3826797e-38
0.35191625 -0.045462862 1.7680001 8.4787511e-39
0.75434673 -0.045462862 1.7680001 1.484131e-38
0.76613343 -0.044500686 1.768 1.5391257e-38
0.77623624 -0.045462862 1.7679999 1.5115749e-38
0.78676009 -0.045883816 1.7679999 1.5299066e-38
0.79644191 -0.045462862 1.7679999 1.5024251e-38
0.80654478 -0.046809908 1.768 1.3362243e-38
0.81328005 -0.047146671 1.7680001 1.4196667e-38
0.35528383 -0.033676192 1.7680001 8.5720019e-39
0.73582482 -0.031992383 1.7680001 1.5391251e-38
0.75560963 -0.034939054 1.7679999 1.520831e-38
