# .PCD v0.7 - Point Cloud Data file format
VERSION 0.7
FIELDS x y z rgb
SIZE 4 4 4 4
TYPE F F F F
COUNT 1 1 1 1
WIDTH 1025
HEIGHT 1
VIEWPOINT 0 0 0 1 0 0 0
POINTS 1025
DATA ascii
-0.26879311 -0.12218025 1.04725 2.2094623e-39
-0.31160766 -0.11015429 1.0420001 3.127481e-39
-0.3086305 -0.11114667 1.0420001 3.3136126e-39
-0.28310001 -0.11522668 1.043 2.5760784e-39
-0.27576146 -0.1169365 1.0423 2.4846003e-39
-0.3119489 -0.10559293 1.0445715 2.6664916e-39
-0.30774862 -0.10541661 1.0428572 2.5749938e-39
-0.28414857 -0.17028762 1.0580001 1.7146221e-38
-0.27608764 -0.17028762 1.0580001 1.8449568e-38
-0.32286039 -0.16294077 1.0574001 1.0879457e-38
-0.31488863 -0.16353725 1.0563335 1.0970571e-38
-0.30452833 -0.16483039 1.0553001 1.1060253e-38
-0.29448193 -0.16436265 1.0547694 1.8251117e-38
-0.28483391 -0.16594099 1.054143 1.9088802e-38
-0.27413025 -0.1654855 1.0538751 1.0692946e-38
-0.26500168 -0.16416156 1.0568576 7.7419036e-39
-0.25712609 -0.1629595 1.0580002 8.5709468e-39
-0.32554287 -0.15975715 1.0550001 1.1062411e-38
-0.31960765 -0.15930286 1.052 1.0786896e-38
-0.2715162 -0.15930286 1.052 8.2950801e-39
-0.26392761 -0.15554887 1.0537145 8.6627893e-39
-0.25634405 -0.15445146 1.0572003 8.4791015e-39
-0.26287052 -0.14548336 1.0535001 8.2021755e-39
-0.25733703 -0.14489131 1.0570772 7.6493506e-39
-0.26410797 -0.13500583 1.0538002 4.5143419e-39
-0.25855505 -0.13522248 1.0580001 3.3118414e-39
-0.26466307 -0.12686826 1.0530502 2.6689873e-39
-0.2589581 -0.12897524 1.0580001 3.1278019e-39
-0.31359622 -0.10119238 1.052 3.0348958e-39
-0.31382066 -0.098801598 1.0550001 2.3927592e-39
-0.31226289 -0.17189716 1.0680001 1.1247528e-38
-0.30412576 -0.17189716 1.0680001 1.0787982e-38
-0.29392764 -0.17236064 1.0666666 1.0320871e-38
-0.28499848 -0.17484158 1.0656364 1.1056295e-38
-0.27477396 -0.17474349 1.0640715 1.8252913e-38
-0.26516566 -0.17420252 1.0645454 1.3366252e-38
-0.25670308 -0.17375517 1.0669091 8.1074981e-39
-0.33231565 -0.16522151 1.0642859 1.0694713e-38
-0.32502905 -0.16736148 1.0650001 1.0879098e-38
-0.31547964 -0.16838165 1.0641429 1.1063483e-38
-0.30484363 -0.16913126 1.0634001 1.0235168e-38
-0.29606956 -0.16874954 1.0610001 9.3085679e-39
-0.26272383 -0.16874954 1.0610001 8.1056736e-39
-0.25342724 -0.16588226 1.0637368 8.3868988e-39
-0.24585024 -0.16509795 1.0669475 8.2947242e-39
-0.25188047 -0.15445921 1.0621539 8.1110378e-39
-0.24701712 -0.15617035 1.0662 7.926306e-39
-0.25283334 -0.14447591 1.0633334 5.9908943e-39
-0.24886096 -0.14612953 1.0680001 5.6210243e-39
-0.25439343 -0.13488966 1.0642173 2.6686188e-39
-0.24920003 -0.1373143 1.0680001 2.8523052e-39
-0.25613052 -0.12857239 1.0630001 3.1281606e-39
-0.12422667 -0.28028002 1.0780001 3.9629477e-39
-0.28130668 -0.18172002 1.0780001 9.6762279e-39
-0.27464002 -0.18138286 1.076 1.2896242e-38
-0.26522714 -0.18202643 1.07525 1.8161816e-38
-0.25529778 -0.18206224 1.0780001 1.4656298e-38
-0.24640003 -0.18172002 1.0780001 8.9304387e-39
-0.34188002 -0.17556001 1.0780001 1.1520131e-38
-0.3337765 -0.17439397 1.0765455 1.050995e-38
-0.32537615 -0.1745407 1.0746155 1.0695783e-38
-0.31492004 -0.17546059 1.0736002 1.133936e-38
-0.30522323 -0.17649825 1.074077 1.1799251e-38
-0.29562002 -0.17749944 1.0748001 1.0603582e-38
-0.28605908 -0.17900001 1.0740001 9.4000306e-39
-0.27846003 -0.17850001 1.0710001 9.0362802e-39
-0.25319386 -0.17679524 1.0720001 7.559341e-39
-0.24552825 -0.17521067 1.0758181 8.2932879e-39
-0.23602355 -0.17289826 1.0771539 8.2954249e-39
-0.33558002 -0.16830002 1.0710001 1.078654e-38
-0.24174002 -0.16422001 1.0710001 8.3854709e-39
-0.23689429 -0.16537306 1.0756086 8.0184933e-39
-0.24286792 -0.15431163 1.0738822 7.0043413e-39
-0.23852891 -0.15673779 1.0780001 7.0972418e-39
-0.24454443 -0.14507483 1.0743912 3.3136337e-39
-0.24636459 -0.13859315 1.0716001 2.3027257e-39
-0.15024763 -0.29324192 1.0880001 3.5949093e-39
-0.14610288 -0.29220575 1.0880001 3.8707731e-39
-0.14243758 -0.28561282 1.0871429 4.8842174e-39
-0.13568966 -0.2846556 1.0875909 4.3306695e-39
-0.12837048 -0.282621 1.0870001 3.7792655e-39
-0.13320805 -0.27643263 1.0880002 4.423577e-39
-0.12504961 -0.27486524 1.0857776 3.1335584e-39
-0.10672762 -0.24972191 1.0880001 2.3049006e-39
-0.25414231 -0.19200401 1.0874001 1.5575994e-38
-0.2459268 -0.19214062 1.0861251 1.96416e-38
-0.23521525 -0.19169526 1.0880001 1.2996067e-38
-0.34203336 -0.18083334 1.085 1.0323734e-38
-0.33562577 -0.18147308 1.0852858 1.0141163e-38
-0.32438597 -0.18190256 1.0858891 1.0602872e-38
-0.31460682 -0.18261799 1.0846668 1.1247161e-38
-0.30521497 -0.18326083 1.0852309 1.1339352e-38
-0.2945843 -0.18476312 1.0860001 1.1155687e-38
-0.28464264 -0.18593672 1.0842003 1.0788333e-38
-0.27526167 -0.18591802 1.0833002 9.5876449e-39
-0.26418301 -0.18671298 1.0846251 1.6220662e-38
-0.25449568 -0.18664032 1.0818574 1.9270673e-38
-0.24401687 -0.18594149 1.0821766 1.2443229e-38
-0.23492552 -0.18467741 1.0837307 8.2028747e-39
-0.22683308 -0.183955 1.0868573 8.0188352e-39
-0.34210193 -0.17424706 1.0826 1.0969123e-38
-0.33830157 -0.17563677 1.0810002 1.0601418e-38
-0.3236137 -0.17810765 1.0810001 1.069579e-38
-0.24193811 -0.17810763 1.0810001 8.4791043e-39
-0.23473144 -0.1770781 1.0810002 8.2950577e-39
-0.22690006 -0.17493892 1.0840555 8.2021628e-39
-0.34077239 -0.16987143 1.0810001 1.0694344e-38
-0.23229006 -0.16336796 1.081889 7.6500723e-39
-0.22813848 -0.16592413 1.0839336 7.4660439e-39
-0.23440844 -0.15485407 1.0843045 4.1455579e-39
-0.22899811 -0.15542859 1.0880001 3.8632271e-39
-0.24193811 -0.14104477 1.0810001 2.8537289e-39
-0.23668858 -0.14708646 1.0842223 2.9441295e-39
-0.22899811 -0.14817525 1.0880001 3.1288725e-39
-0.19014573 -0.30028477 1.0910001 3.6860413e-39
-0.18195429 -0.30012003 1.098 3.5016459e-39
-0.17568001 -0.30116573 1.098 3.9636974e-39
-0.16557658 -0.30094537 1.0934 3.6874749e-39
-0.15897429 -0.30028477 1.0910001 2.8616476e-39
-0.18090859 -0.29802859 1.098 3.7793048e-39
-0.17397769 -0.29635841 1.0974544 3.5037899e-39
-0.1655235 -0.29508543 1.0942081 3.6860329e-39
-0.15615484 -0.29439268 1.0926841 3.4101537e-39
-0.14754477 -0.2919724 1.0910001 3.7785831e-39
-0.16208573 -0.28966287 1.098 5.2458267e-39
-0.15444843 -0.28602439 1.0957272 5.8990938e-39
-0.14664143 -0.28456703 1.0919999 5.7136137e-39
-0.15339267 -0.27484983 1.0967144 1.2068195e-38
-0.14465606 -0.27473193 1.0926921 6.5397464e-39
-0.13630417 -0.27383628 1.091 5.3451731e-39
-0.12156858 -0.27119145 1.0910001 2.7658409e-39
-0.11780255 -0.27071053 1.0946667 2.8584177e-39
-0.15450135 -0.26558363 1.0976 2.0650739e-38
-0.14457397 -0.26488489 1.0958797 1.5297227e-38
-0.13484879 -0.26543891 1.0956535 2.2116245e-39
-0.12533747 -0.2658383 1.0950453 2.6732977e-39
-0.11678219 -0.26464856 1.0959443 3.318321e-39
-0.10980001 -0.2624743 1.098 3.682049e-39
-0.16313145 -0.25829145 1.098 2.0468144e-38
-0.15790287 -0.25724575 1.098 2.0743298e-38
-0.12178393 -0.25558823 1.097625 3.0417355e-39
-0.11526374 -0.2558212 1.0959524 3.226117e-39
-0.10942 -0.25531641 1.0942001 3.3172154e-39
-0.12025715 -0.24888001 1.098 3.2250506e-39
-0.11385944 -0.24756232 1.0968001 3.3154469e-39
-0.10946667 -0.24707747 1.0946667 2.9484651e-39
-0.31371433 -0.19136573 1.098 1.1154609e-38
-0.30492717 -0.19110429 1.0965002 1.1246086e-38
-0.29436231 -0.19199201 1.0968001 1.1154962e-38
-0.28602415 -0.19331126 1.095 1.1062761e-38
-0.27455044 -0.19306919 1.0949286 1.0602874e-38
-0.26531854 -0.19404274 1.0942001 1.0231934e-38
-0.25589514 -0.19605404 1.0941429 1.0413097e-38
-0.24425496 -0.19693041 1.0949233 1.7606839e-38
-0.23501439 -0.19593754 1.0943125 1.6873246e-38
-0.22476812 -0.19390735 1.0943332 9.3071175e-39
-0.21559146 -0.19357693 1.0968463 8.0174115e-39
-0.34184667 -0.18391144 1.0910001 1.0047875e-38
-0.33449379 -0.18563472 1.0941429 1.0050407e-38
-0.32533953 -0.1874923 1.0949 1.0511025e-38
-0.31609005 -0.18792081 1.0941668 1.1154951e-38
-0.30444098 -0.18806763 1.0910001 1.1246806e-38
-0.29825717 -0.18875715 1.095 1.1338996e-38
-0.22206175 -0.18573207 1.0928184 8.2028593e-39
-0.21539354 -0.18535949 1.0952499 8.2021586e-39
-0.22173348 -0.1752338 1.0930667 8.017403e-39
-0.21800667 -0.17516956 1.0970001 7.650047e-39
-0.22352412 -0.16496257 1.0942 5.7128752e-39
-0.21813603 -0.16459544 1.098 3.9604366e-39
-0.22565 -0.15627371 1.0938998 3.0359776e-39
-0.21750858 -0.15999429 1.098 2.9448497e-39
-0.20384477 -0.3010143 1.1090001 3.7771552e-39
-0.19560207 -0.30271968 1.1047274 3.7774999e-39
-0.2017324 -0.29784572 1.1090001 3.1325018e-39
-0.19419658 -0.29721668 1.1078235 3.042446e-39
-0.18530743 -0.29449859 1.1060414 3.9636932e-39
-0.17694016 -0.29334468 1.1040001 4.0548253e-39
-0.16687429 -0.29071814 1.102 5.6131658e-39
-0.18335469 -0.28665015 1.1090001 5.4377555e-39
-0.1743495 -0.28555748 1.1082727 5.3477011e-39
-0.16486204 -0.28535554 1.105238 4.8892481e-39
-0.15847811 -0.28232193 1.102 3.4141404e-39
-0.1806086 -0.27355337 1.1090001 6.5487568e-39
-0.17458479 -0.27585581 1.108652 6.5429974e-39
-0.1648626 -0.27495238 1.1047894 1.4102308e-38
-0.15805832 -0.27476534 1.1020001 1.7971946e-38
-0.18060859 -0.26932859 1.1090001 1.7607736e-39
-0.1735673 -0.2682724 1.1090002 8.1110658e-39
-0.16381332 -0.26586863 1.1029474 1.770337e-38
-0.15497971 -0.26203114 1.1020001 2.0742935e-38
-0.14798287 -0.26133144 1.102 2.1202844e-38
-0.1346889 -0.26133144 1.102 1.7502722e-39
-0.12804192 -0.26133144 1.102 2.4885547e-39
-0.20365275 -0.25319767 1.1090002 5.34629e-39
-0.19962001 -0.25242954 1.1090001 5.7129145e-39
-0.1523573 -0.25577918 1.1032858 2.1480861e-38
-0.1450709 -0.25544748 1.1037999 2.0373397e-38
-0.13553694 -0.2553091 1.1031997 2.9445036e-39
-0.12662077 -0.25468341 1.1021875 2.7651556e-39
-0.20384477 -0.24820478 1.1090001 8.8464448e-39
-0.15154289 -0.24520479 1.1049999 2.0927337e-38
-0.14458767 -0.245433 1.1068331 1.9819165e-38
-0.13556339 -0.24652188 1.1079473 3.0359762e-39
-0.12552518 -0.24524629 1.1059998 3.1331913e-39
-0.11592357 -0.24340218 1.1032002 2.9484581e-39
-0.15137367 -0.23671685 1.1063335 1.7978153e-38
-0.14760262 -0.23737884 1.1090001 1.7332422e-38
-0.1230462 -0.23922716 1.1090001 2.8580463e-39
-0.11514541 -0.23538445 1.1074998 3.1328521e-39
-0.11533602 -0.22792593 1.1090001 3.1324626e-39
-0.10456286 -0.22074382 1.1090001 3.1339129e-39
-0.10350667 -0.21863145 1.1090001 3.3172406e-39
-0.28517145 -0.2017324 1.1090001 1.0692549e-38
-0.27516863 -0.20242476 1.107 1.0877662e-38
-0.26586556 -0.2016786 1.1048334 1.0878371e-38
-0.25510246 -0.20247197 1.1053334 1.050995e-38
-0.24463041 -0.20406955 1.1050001 1.2902358e-38
-0.23446991 -0.20402184 1.1055385 1.7699392e-38
-0.22469693 -0.20363571 1.106077 1.7887055e-38
-0.2157236 -0.2027301 1.10675 9.8628206e-39
-0.20595716 -0.2017324 1.1090001 8.1078092e-39
-0.34318766 -0.19216211 1.1074002 9.1280974e-39
-0.3349773 -0.19367799 1.1072223 9.6809209e-39
-0.32462984 -0.1939382 1.1067002 1.0695415e-38
-0.31479543 -0.19451697 1.1040001 1.1154259e-38
-0.30649972 -0.19498383 1.1046667 1.1153529e-38
-0.29612049 -0.19732739 1.1065001 1.0878381e-38
-0.28446019 -0.19828019 1.1035 1.0693981e-38
-0.27497524 -0.19836001 1.102 1.0878374e-38
-0.2592324 -0.19836001 1.102 9.8609961e-39
-0.22354859 -0.19836001 1.102 1.0683989e-38
-0.21261851 -0.1967151 1.1028574 7.9259347e-39
-0.20564577 -0.19521067 1.1068095 7.9262948e-39
-0.34214479 -0.18786478 1.102 9.5887112e-39
-0.3347981 -0.18996382 1.102 9.7738326e-39
-0.21253566 -0.18343742 1.1024287 8.0181219e-39
-0.20580885 -0.18556373 1.1062608 7.8337363e-39
-0.21370326 -0.17472395 1.1049129 6.5437079e-39
-0.20719634 -0.17630424 1.1075716 5.8043576e-39
-0.19750763 -0.17004667 1.1090001 2.8515905e-39
-0.2143036 -0.16632581 1.1048669 3.3136323e-39
-0.20100477 -0.16522382 1.105 2.9441295e-39
-0.20257545 -0.29430518 1.1148001 4.3278024e-39
-0.19631258 -0.29244915 1.1142 5.0667772e-39
-0.1942398 -0.28559008 1.1153573 4.8852866e-39
-0.18625715 -0.28362575 1.113 3.9633373e-39
-0.20300573 -0.27102858 1.1160001 1.0791561e-38
-0.19336915 -0.27442971 1.1160002 7.279831e-39
-0.18523501 -0.27480498 1.113 4.2359683e-39
-0.21416572 -0.26093146 1.1160001 6.6427923e-39
-0.20459718 -0.26436859 1.1154001 8.5756579e-39
-0.19684117 -0.26422632 1.1160001 8.667478e-39
-0.18481502 -0.26872218 1.1152501 5.5270504e-39
-0.17619716 -0.26747859 1.1145002 1.1882773e-38
-0.21425605 -0.25460002 1.1148001 5.3466249e-39
-0.20515822 -0.25680915 1.113 6.3625915e-39
-0.19684002 -0.2552366 1.1148001 7.463914e-39
-0.21228716 -0.24943572 1.1145 1.0048937e-38
-0.20502524 -0.24850428 1.1135001 8.6656577e-39
-0.1987543 -0.24977145 1.1160001 5.5292435e-39
-0.14204001 -0.24062002 1.113 1.6312088e-38
-0.13431714 -0.24122575 1.113 2.393478e-39
-0.12826 -0.24062002 1.113 2.5821853e-39
-0.15158001 -0.23214002 1.113 9.3038875e-39
-0.14427011 -0.23511851 1.1144 1.0599265e-38
-0.13518018 -0.23663092 1.1154375 2.3960046e-39
-0.12492017 -0.23485273 1.1139376 2.5818406e-39
-0.11130001 -0.23214002 1.113 2.9491615e-39
-0.10918001 -0.23002002 1.113 3.040976e-39
-0.12222858 -0.22532573 1.1160002 2.8573359e-39
-0.11511413 -0.22330068 1.1137058 2.9491699e-39
-0.1082705 -0.22419684 1.1133333 2.8569617e-39
-0.21682286 -0.21150859 1.1160001 2.240278e-38
-0.11421894 -0.21728036 1.115625 2.9491643e-39
-0.10696287 -0.21513757 1.1151431 2.9488084e-39
-0.34511718 -0.20070001 1.1150001 8.9433362e-39
-0.3348 -0.20088001 1.1160001 9.772741e-39
-0.32523429 -0.20088001 1.1160001 1.0693976e-38
-0.31620002 -0.20088001 1.1160001 1.1154247e-38
-0.30610287 -0.20088001 1.1160001 1.0877662e-38
-0.2952981 -0.20264289 1.1140001 1.0601434e-38
-0.28535962 -0.20564778 1.1138573 1.0508882e-38
-0.2746903 -0.20681146 1.1136 1.0417403e-38
-0.26438466 -0.20651896 1.114875 1.0326276e-38
-0.25571823 -0.20797108 1.114125 1.0508147e-38
-0.24539003 -0.20882002 1.113 1.1151729e-38
-0.23426001 -0.20882002 1.113 1.483811e-38
-0.22578001 -0.20829003 1.113 2.0007165e-38
-0.21444631 -0.20744859 1.1136 1.3368406e-38
-0.20438337 -0.20568366 1.1144998 8.106754e-39
-0.19658001 -0.20353119 1.1146364 7.9241284e-39
-0.10734858 -0.20938288 1.1160001 2.8558939e-39
-0.34344006 -0.19716001 1.113 9.1284506e-39
-0.33495998 -0.19822001 1.113 9.7723906e-39
-0.32542002 -0.19822001 1.113 1.0878726e-38
-0.31623337 -0.19822001 1.1130002 1.1154613e-38
-0.30528 -0.19822001 1.113 1.1061333e-38
-0.20076402 -0.19525202 1.113 7.8330272e-39
-0.19655226 -0.19458042 1.1147144 7.8323069e-39
-0.20110002 -0.18473187 1.1138572 7.0969041e-39
-0.19804573 -0.18741715 1.1160001 7.3720491e-39
-0.20295909 -0.17423983 1.1142 3.588085e-39
-0.21094002 -0.16536 1.113 2.7604669e-39
-0.20677206 -0.16714032 1.1146667 2.66863e-39
-0.22139144 -0.29198003 1.123 5.0646948e-39
-0.21370211 -0.29382652 1.1208 5.8058023e-39
-0.20678098 -0.29333341 1.12 5.7125221e-39
-0.22264679 -0.28458244 1.1264666 4.8874222e-39
-0.21457656 -0.28564969 1.1233476 4.9785528e-39
-0.20496686 -0.28502834 1.1209 4.7008855e-39
-0.19760002 -0.28320003 1.12 5.2497447e-39
-0.22490336 -0.2741648 1.1244999 8.8511392e-39
-0.21486685 -0.27472803 1.1224284 8.942602e-39
-0.20490827 -0.27546307 1.1202 8.7571373e-39
-0.19672383 -0.27626669 1.12 7.7350414e-39
-0.23219779 -0.26547116 1.1270001 4.9821724e-39
-0.22496258 -0.26473013 1.1218334 6.0867305e-39
-0.21440004 -0.26613334 1.12 8.2057852e-39
-0.20515558 -0.26986668 1.1200001 9.4987044e-39
-0.19366966 -0.26593113 1.1202 9.2166637e-39
-0.18577223 -0.2651028 1.1241055 9.9542512e-39
-0.17411771 -0.26522356 1.1235716 1.8716395e-38
-0.23148224 -0.25795779 1.1270001 7.6511513e-39
-0.22423652 -0.25576198 1.12225 7.0057945e-39
-0.21808478 -0.25282288 1.1225001 7.9309892e-39
-0.19336013 -0.25456041 1.1217144 6.6352477e-39
-0.18640658 -0.25383344 1.126579 1.0326983e-38
-0.21248285 -0.24842916 1.1234 9.681637e-39
-0.20374879 -0.24486446 1.1237894 9.7723962e-39
-0.194915 -0.24513377 1.1230476 1.2074353e-38
-0.18758954 -0.24508445 1.1255455 7.8298028e-39
-0.21216224 -0.23148224 1.1270001 1.0970916e-38
-0.20417091 -0.23523791 1.1250002 1.04174e-38
-0.19474673 -0.23532422 1.1246471 1.180101e-38
-0.18998002 -0.23398668 1.1270001 1.0145101e-38
-0.15080287 -0.23208669 1.123 7.4631783e-39
-0.14589201 -0.23132668 1.1214 8.4809049e-39
-0.1349926 -0.23241483 1.12 2.8558981e-39
-0.12835556 -0.23217779 1.1200001 2.3048809e-39
-0.21359335 -0.22003335 1.1270001 1.6497571e-38
-0.20383008 -0.22562015 1.1237271 1.4102706e-38
-0.19482379 -0.22533381 1.124 1.548779e-38
-0.18998002 -0.22486334 1.1270001 1.4292479e-38
-0.14393783 -0.22499341 1.1234119 8.6624193e-39
-0.13517454 -0.22547425 1.1206524 3.8682564e-39
-0.12642162 -0.22430362 1.1201875 2.489268e-39
-0.34748098 -0.21371639 1.1253999 7.3756336e-39
-0.30160668 -0.21144669 1.1270001 1.0509576e-38
-0.29624003 -0.21144669 1.1270001 1.0324832e-38
-0.2855629 -0.21069621 1.123 1.0140814e-38
-0.27447066 -0.21082532 1.1214 1.0049338e-38
-0.26570001 -0.21197133 1.1234444 9.9574938e-39
-0.25415051 -0.21340382 1.126 1.0048617e-38
-0.24355717 -0.21356784 1.1246001 1.0602153e-38
-0.23518644 -0.21447007 1.1253334 1.1892166e-38
-0.2244086 -0.21478018 1.1238334 1.6497986e-38
-0.2138447 -0.21491471 1.1217501 1.8626026e-38
-0.20399387 -0.21558282 1.1220524 1.4383265e-38
-0.1951395 -0.21427631 1.122 8.6631746e-39
-0.18824922 -0.21397027 1.1252223 7.5568018e-39
-0.14272682 -0.21622941 1.1255715 8.5716572e-39
-0.13499925 -0.21535261 1.1249999 4.0529854e-39
-0.12508443 -0.21487921 1.1225199 2.4892722e-39
-0.11544617 -0.21259488 1.12 2.9491587e-39
-0.3450993 -0.20567119 1.12475 8.7585876e-39
-0.33532816 -0.20519821 1.1241111 9.772755e-39
-0.32541165 -0.20575951 1.1236364 1.0508878e-38
-0.31483641 -0.2049395 1.1240001 1.1153171e-38
-0.3051194 -0.20582442 1.124125 1.060143e-38
-0.29637393 -0.20751022 1.1222857 1.050887e-38
-0.28693336 -0.20800002 1.12 1.0417045e-38
-0.19235557 -0.20515558 1.12 7.7408148e-39
-0.18738638 -0.2045216 1.1243334 7.3727623e-39
-0.12346747 -0.20637035 1.1256666 2.7658731e-39
-0.11479969 -0.2039727 1.1228695 2.9488126e-39
-0.10736692 -0.20458262 1.1217501 2.7640584e-39
-0.19247742 -0.19499968 1.1210909 7.4649411e-39
-0.18785964 -0.19492991 1.1246001 7.0965201e-39
-0.11314356 -0.1953546 1.1252857 2.9477476e-39
-0.10642382 -0.19443011 1.1242001 2.4896281e-39
-0.19511323 -0.18442863 1.1223181 5.4370072e-39
-0.18836875 -0.18583663 1.1255455 7.003607e-39
-0.11162667 -0.18998002 1.1270001 3.04099e-39
-0.10626 -0.18944335 1.1270001 2.4892862e-39
-0.19589812 -0.17651252 1.1222857 2.3920459e-39
-0.18881749 -0.17810701 1.1243334 5.5388788e-39
-0.20373335 -0.16746667 1.12 2.76082e-39
-0.23301907 -0.28070667 1.138 8.4830854e-39
-0.22566144 -0.28382719 1.131 4.3256584e-39
-0.24277335 -0.27203619 1.138 5.7183123e-39
-0.23474097 -0.27364132 1.1346667 7.8380747e-39
-0.24414355 -0.26489624 1.1363531 5.7147011e-39
-0.23757969 -0.26492509 1.1333333 5.3441081e-39
-0.18333165 -0.26295558 1.1331112 6.9276609e-39
-0.17740493 -0.26402697 1.1328572 1.632187e-38
-0.24241209 -0.25830793 1.138 8.3901653e-39
-0.23441772 -0.25582457 1.1334167 8.8507931e-39
-0.22623317 -0.25172612 1.1344001 9.21957e-39
-0.18355286 -0.25647387 1.1315 8.2043587e-39
-0.22408167 -0.24558942 1.1374289 9.4950933e-39
-0.21524614 -0.24422328 1.1330003 9.1288289e-39
-0.20788859 -0.24451144 1.131 9.5883581e-39
-0.19065429 -0.24020287 1.131 1.1268948e-39
-0.18395062 -0.24351647 1.1330668 5.1579036e-39
-0.17882858 -0.24277335 1.138 5.5342685e-39
-0.23085144 -0.23193526 1.138 9.8645849e-39
-0.22476402 -0.23443839 1.1354738 9.956426e-39
-0.21575269 -0.235572 1.1326876 1.0233363e-38
-0.18468365 -0.23477969 1.1351669 1.2352786e-38
-0.17882858 -0.23843811 1.138 9.7727354e-39
-0.15012001 -0.23004001 1.1340001 8.2954389e-39
-0.29515749 -0.22001335 1.138 9.9571378e-39
-0.28720957 -0.22001335 1.138 9.7731123e-39
-0.27528763 -0.22001335 1.138 9.4975974e-39
-0.26553336 -0.22001337 1.138 9.4064794e-39
-0.25469527 -0.22044687 1.138 1.0049698e-38
-0.24494097 -0.22218096 1.138 1.0050412e-38
-0.23420167 -0.22446121 1.1365001 1.0600718e-38
-0.22454166 -0.22454379 1.1335 1.1246429e-38
-0.2147 -0.22570243 1.1316317 1.198364e-38
-0.19065429 -0.22296859 1.131 1.1528445e-38
-0.18473136 -0.22471093 1.134364 9.7713158e-39
-0.17697063 -0.22187133 1.138 6.9099653e-39
-0.15064953 -0.22651622 1.138 8.2943627e-39
-0.14756858 -0.22727716 1.131 8.5709524e-39
-0.34466851 -0.21177439 1.1345 8.6660347e-39
-0.33487713 -0.21172833 1.13425 9.9571378e-39
-0.32475752 -0.21174106 1.1328751 1.0325562e-38
-0.31605241 -0.21162446 1.1343335 1.0601079e-38
-0.30529004 -0.21391828 1.1349093 1.0325194e-38
-0.29482055 -0.21622033 1.1357778 1.0048971e-38
-0.28496534 -0.21646033 1.1357778 9.8645849e-39
-0.27563843 -0.21610123 1.1337144 9.6816313e-39
-0.26533145 -0.21679287 1.1325001 9.5897944e-39
-0.25573242 -0.21652953 1.1330001 1.0141173e-38
-0.24580716 -0.21828644 1.13325 1.0142251e-38
-0.23513146 -0.21895 1.1325001 1.0972006e-38
-0.22835431 -0.21866001 1.131 1.1523037e-38
-0.18326473 -0.21487987 1.1331177 7.3716721e-39
-0.17575203 -0.21476106 1.1377337 6.9092478e-39
-0.14545274 -0.21264347 1.133375 7.0994166e-39
-0.13464287 -0.21004286 1.131 2.7644214e-39
-0.31668001 -0.20788859 1.131 1.0968794e-38
-0.18225248 -0.20467183 1.1333847 7.1879969e-39
-0.17715049 -0.20532128 1.1376669 6.6348189e-39
-0.14337334 -0.20556001 1.1365455 2.4856709e-39
-0.13512737 -0.20481914 1.1333336 2.7629808e-39
-0.12638001 -0.20344502 1.1317501 2.4889247e-39
-0.18313959 -0.19528984 1.1336876 6.5426233e-39
-0.17720287 -0.19346002 1.138 6.0823416e-39
-0.14290804 -0.19462125 1.138 2.8515737e-39
-0.13513874 -0.19575559 1.136667 2.7633438e-39
-0.12535416 -0.19558959 1.1346501 2.395999e-39
-0.11847112 -0.19393526 1.132 3.0399334e-39
-0.1839776 -0.18597323 1.1327693 5.9872957e-39
-0.17703146 -0.18816802 1.1364287 5.1607608e-39
-0.1427016 -0.18713778 1.138 2.6689803e-39
-0.13524801 -0.18647231 1.1380002 2.9477252e-39
-0.12463811 -0.1868217 1.1380002 2.6732963e-39
-0.11468567 -0.18526232 1.1349503 3.132478e-39
-0.10592207 -0.18413274 1.1336113 2.948105e-39
-0.11235493 -0.17810605 1.138 3.1317605e-39
-0.10670599 -0.17666097 1.1380001 3.1317577e-39
-0.096120007 -0.14580001 1.1340001 4.0533623e-39
-0.092880011 -0.13932002 1.1340001 3.2232639e-39
-0.23684001 -0.28268 1.146 8.0231876e-39
-0.26303431 -0.27394858 1.146 3.5920633e-39
-0.25321144 -0.27176574 1.146 4.0529924e-39
-0.24572001 -0.27258861 1.1433334 4.7945567e-39
-0.2375181 -0.27891621 1.1440001 8.0213869e-39
-0.25326431 -0.26689288 1.1450001 6.0831067e-39
-0.24950096 -0.26148382 1.1440001 7.562571e-39
-0.24514098 -0.25821525 1.1440001 8.205781e-39
-0.23503736 -0.25333375 1.1436001 9.4028865e-39
-0.22948763 -0.25124002 1.1420001 9.7709473e-39
-0.1816324 -0.25776574 1.1420001 9.0441961e-39
-0.17945716 -0.25994098 1.1420001 1.124357e-38
-0.2327029 -0.24470353 1.1453333 9.5879952e-39
-0.22948764 -0.2447143 1.1420001 9.6798251e-39
-0.17728192 -0.24036382 1.1420001 1.0599231e-38
-0.24229717 -0.23138288 1.146 9.5887183e-39
-0.23559049 -0.23522352 1.1443334 9.4965198e-39
-0.1776522 -0.23345487 1.1444 1.1155341e-38
-0.15353334 -0.23193082 1.1433334 8.0177758e-39
-0.30288762 -0.22171906 1.1440001 1.0049335e-38
-0.29428917 -0.22283927 1.1436001 9.8645961e-39
-0.2839807 -0.22267511 1.1437144 9.6809195e-39
-0.27564764 -0.22226477 1.1440001 9.58907e-39
-0.2643905 -0.22408001 1.1440001 9.5890742e-39
-0.25622836 -0.22476339 1.1437778 1.0048617e-38
-0.24422002 -0.22679429 1.1435001 9.9567847e-39
-0.23710096 -0.22948763 1.1420001 9.8638674e-39
-0.17479399 -0.22502095 1.1423335 6.264949e-39
-0.15247583 -0.22532992 1.1452001 8.0177688e-39
-0.34539199 -0.21748805 1.1424445 8.3890778e-39
-0.33506858 -0.2171943 1.146 9.773464e-39
-0.32524574 -0.2171943 1.146 1.0325912e-38
-0.31389451 -0.21791582 1.1452 1.0324826e-38
-0.30888066 -0.21741652 1.1433334 1.0233e-38
-0.17131811 -0.2141448 1.1433334 6.1734736e-39
-0.16917144 -0.21501146 1.146 5.5299035e-39
-0.15170859 -0.21610287 1.146 8.111035e-39
-0.14900382 -0.21208572 1.1420001 8.5719935e-39
-0.17320469 -0.20529197 1.1438183 6.358609e-39
-0.16917144 -0.20846286 1.146 5.5292014e-39
-0.1461035 -0.20338479 1.1420001 2.300223e-39
-0.17505795 -0.19582719 1.1436001 6.6351706e-39
-0.16730857 -0.19435774 1.1452 6.447171e-39
-0.14693297 -0.19351201 1.1428002 3.7745992e-39
-0.14580709 -0.18439373 1.1437144 3.0388362e-39
-0.13561411 -0.18132307 1.1428001 3.221801e-39
-0.12594858 -0.18166065 1.1433334 2.580756e-39
-0.11855049 -0.1816324 1.1420001 3.4083572e-39
-0.14276329 -0.17825717 1.1442859 3.4958613e-39
-0.13466859 -0.178569 1.1442858 2.3963549e-39
-0.12420655 -0.17781308 1.1454285 2.2141371e-39
-0.11573835 -0.17496479 1.1437501 3.2243275e-39
-0.10602349 -0.17251451 1.1424445 3.2243317e-39
-0.11265969 -0.16674605 1.146 3.0406523e-39
-0.10596708 -0.16540764 1.1437144 3.2243289e-39
-0.10150287 -0.14625144 1.146 2.1222974e-39
-0.097663954 -0.14376791 1.1448572 3.499827e-39
-0.09339112 -0.13772255 1.1446667 3.2268653e-39
-0.2677629 -0.28098577 1.1570001 3.9655065e-39
-0.24241906 -0.28318954 1.1570001 7.7455245e-39
-0.23985715 -0.2814762 1.1500001 7.8373502e-39
-0.27243459 -0.27500194 1.155 4.1470083e-39
-0.26503348 -0.27421576 1.1511248 4.0551896e-39
-0.25681677 -0.274804 1.1514 3.5967324e-39
-0.24674717 -0.27636147 1.1515 5.4413681e-39
-0.27217048 -0.26996669 1.1570001 5.9008846e-39
-0.26455718 -0.26675132 1.1539999 6.7295649e-39
-0.25629163 -0.26419505 1.1529999 7.283459e-39
-0.25076208 -0.25359556 1.1570002 8.2965431e-39
-0.24480081 -0.25431767 1.1535 8.4823637e-39
-0.23810478 -0.25256193 1.1500001 8.8518721e-39
-0.25307083 -0.2453575 1.1570001 8.8522294e-39
-0.24541995 -0.24541995 1.152842 9.1284562e-39
-0.23742332 -0.24521166 1.1500001 9.6794635e-39
-0.29310668 -0.23029812 1.1570001 9.5876435e-39
-0.28539336 -0.23029812 1.1570001 9.4954352e-39
-0.27217048 -0.23029812 1.1570001 9.5876182e-39
-0.26488701 -0.2329686 1.1556667 9.4951031e-39
-0.25507677 -0.23388486 1.1549091 9.587998e-39
-0.24576783 -0.23582742 1.1509999 9.313216e-39
-0.23876192 -0.23985715 1.1500001 9.5887183e-39
-0.17330053 -0.23563388 1.1521999 9.8645975e-39
-0.164396 -0.23416384 1.1554002 5.7093061e-39
-0.15792143 -0.2346867 1.1515 7.1837201e-39
-0.34294268 -0.22211449 1.1534001 9.0348116e-39
-0.33445209 -0.22102064 1.1526667 9.9567749e-39
-0.32397673 -0.22254796 1.154889 1.0417389e-38
-0.31494552 -0.22412851 1.1535833 1.0417033e-38
-0.3056671 -0.22630984 1.1527144 1.0324484e-38
-0.29508135 -0.22706917 1.1518 9.863873e-39
-0.28440669 -0.22730573 1.153 9.8631429e-39
-0.27505767 -0.22641128 1.1521667 9.4968743e-39
-0.26601017 -0.22837369 1.151 9.4950877e-39
-0.25409526 -0.22890478 1.1500001 9.8642247e-39
-0.24861906 -0.22890478 1.1500001 9.8645933e-39
-0.1719524 -0.22780955 1.1500001 6.169536e-39
-0.16544749 -0.22504944 1.1517498 5.8043478e-39
-0.15682538 -0.22403315 1.1515 7.3716679e-39
-0.32455558 -0.21795242 1.1500001 1.032592e-38
-0.16449715 -0.21494669 1.1514999 5.7139234e-39
-0.15644549 -0.21440108 1.1537499 7.0972278e-39
-0.1719524 -0.20152383 1.1500001 6.7288334e-39
-0.16555783 -0.205079 1.1525415 5.346971e-39
-0.15482733 -0.20765144 1.1556667 4.7923567e-39
-0.14824286 -0.20314763 1.153 3.0395761e-39
-0.1719524 -0.1982381 1.1500001 7.0932747e-39
-0.164703 -0.19793159 1.1518571 5.4351855e-39
-0.15096097 -0.19724096 1.1570001 4.5128691e-39
-0.14216191 -0.17370477 1.1500001 3.1292312e-39
-0.13453794 -0.17373233 1.1507057 2.7647675e-39
-0.12518528 -0.17340301 1.1506923 2.3974395e-39
-0.11938096 -0.1719524 1.1500001 3.4090635e-39
-0.1416508 -0.16611113 1.1500001 3.3143455e-39
-0.13521037 -0.16537268 1.1526086 3.1321123e-39
-0.12517816 -0.16531308 1.1529443 2.5814622e-39
-0.11652148 -0.16400467 1.1506 3.4087062e-39
-0.10477778 -0.16100001 1.1500001 3.4987494e-39
-0.1416543 -0.15702763 1.1530001 3.6820406e-39
-0.13540207 -0.15519193 1.1543332 3.6831196e-39
-0.12473787 -0.15653965 1.1564997 2.490347e-39
-0.11458936 -0.15537685 1.1531904 3.1335654e-39
-0.10605199 -0.15482612 1.1509374 3.0409928e-39
-0.13741812 -0.1484143 1.1543334 3.9596981e-39
-0.11244068 -0.1464064 1.1558571 3.5927471e-39
-0.10587247 -0.14460729 1.1527857 2.9488154e-39
-0.09966667 -0.14128572 1.1500001 3.1321011e-39
-0.10449589 -0.1361694 1.1549332 2.9488182e-39
-0.096797459 -0.13449839 1.1516874 3.778216e-39
-0.10137524 -0.12892286 1.1570001 3.1335822e-39
-0.096800014 -0.12759811 1.155 4.2384654e-39
-0.26163334 -0.29058 1.169 6.7313502e-39
-0.25443813 -0.29115528 1.1683335 7.5618788e-39
-0.24696732 -0.29288098 1.1663334 1.0328818e-38
-0.28299713 -0.28299716 1.1683334 2.5807518e-39
-0.27547264 -0.28492737 1.1675 3.5967142e-39
-0.2634086 -0.28526857 1.1670001 5.8112058e-39
-0.25554779 -0.28490338 1.1646923 7.2845408e-39
-0.24724011 -0.28611544 1.1631819 7.8373726e-39
-0.28258216 -0.27646646 1.1670001 4.7005142e-39
-0.27718219 -0.2755141 1.163 4.6994506e-39
-0.25320858 -0.27974576 1.161 5.4438764e-39
-0.24878573 -0.27974573 1.161 6.5502113e-39
-0.27251431 -0.26584575 1.1663334 6.2696616e-39
-0.26561657 -0.26258922 1.1642729 6.9153953e-39
-0.25866446 -0.26161557 1.1623335 7.4685663e-39
-0.27128226 -0.2530978 1.1690001 8.0206499e-39
-0.26476967 -0.25532442 1.1662501 7.9288172e-39
-0.25613517 -0.25545302 1.1619233 7.9291913e-39
-0.27254403 -0.24426535 1.169 8.9429817e-39
-0.26453161 -0.24479927 1.1661767 9.3114027e-39
-0.25763142 -0.24546857 1.1610001 9.4021634e-39
-0.17500192 -0.24256858 1.1630001 1.8344003e-38
-0.16476604 -0.24252415 1.1663334 1.2357493e-38
-0.35404003 -0.23046002 1.169 6.9150212e-39
-0.34513336 -0.23046002 1.169 9.3099622e-39
-0.33479527 -0.2317324 1.1690001 1.0140094e-38
-0.32442424 -0.23325887 1.1674001 1.0048612e-38
-0.3152048 -0.23368727 1.1662 9.8642135e-39
-0.30543676 -0.23436099 1.1662308 9.5876336e-39
-0.29546794 -0.23530778 1.1663332 9.2185022e-39
-0.28446254 -0.2361626 1.165 9.03482e-39
-0.27577472 -0.23525119 1.1635716 9.2199427e-39
-0.26641592 -0.23726445 1.1623334 9.4036249e-39
-0.25718915 -0.23861316 1.1610001 9.5880008e-39
-0.16652058 -0.23861316 1.1610001 6.63601e-39
-0.35413942 -0.22647303 1.1656668 7.2855875e-39
-0.34486449 -0.22695367 1.1643333 9.1255737e-39
-0.33505133 -0.22628222 1.1627778 1.0231927e-38
-0.32571551 -0.22804779 1.1615715 1.0324843e-38
-0.31623429 -0.22888288 1.161 1.041668e-38
-0.15516859 -0.21192859 1.161 5.9919761e-39
-0.1603286 -0.20234573 1.161 4.7008603e-39
-0.15521497 -0.20419468 1.1626471 4.8834481e-39
-0.14927144 -0.20124 1.161 3.6824176e-39
-0.15533334 -0.19860478 1.1650001 5.250776e-39
-0.13158001 -0.15148287 1.161 3.2264491e-39
-0.12557755 -0.15211472 1.1610001 2.5821741e-39
-0.11831143 -0.15148287 1.161 3.2261086e-39
-0.14054668 -0.14386383 1.1620001 3.6834756e-39
-0.13480969 -0.1446162 1.1647896 3.5016024e-39
-0.12524477 -0.14558953 1.1655004 2.8576806e-39
-0.11637811 -0.14399862 1.1637694 3.3176049e-39
-0.14110307 -0.1344322 1.1666001 3.7764125e-39
-0.13465619 -0.13465711 1.1685202 3.6856602e-39
-0.12469335 -0.13471335 1.1690001 3.2261058e-39
-0.1157365 -0.13467725 1.1666844 4.1462656e-39
-0.1080543 -0.13312986 1.1616668 3.3161602e-39
-0.14139335 -0.12803334 1.169 3.8718591e-39
-0.13471335 -0.12739716 1.1690001 3.6871007e-39
-0.12135334 -0.12803334 1.169 4.9764018e-39
-0.11398219 -0.12542544 1.1684287 6.1770848e-39
-0.1051645 -0.125104 1.1634763 4.2377522e-39
-0.097302876 -0.12273429 1.1610001 4.6072592e-39
-0.11022001 -0.11801334 1.169 5.073275e-39
-0.10414456 -0.1161214 1.1680769 5.1575603e-39
-0.098747626 -0.11760953 1.1650001 4.7934735e-39
-0.28472191 -0.29032668 1.177 3.9644121e-39
-0.27388605 -0.29070038 1.177 5.7168395e-39
-0.26544192 -0.29343906 1.1760001 6.638098e-39
-0.29320917 -0.28424153 1.177 3.5005655e-39
-0.28678656 -0.28519067 1.1730002 3.4098034e-39
-0.26699716 -0.28859526 1.1730001 6.0881444e-39
-0.29144764 -0.27911717 1.177 4.4257798e-39
-0.28535461 -0.27453655 1.1750001 4.9785598e-39
-0.27864289 -0.27080762 1.1750001 5.7182772e-39
-0.27489659 -0.2636947 1.1762002 6.5469547e-39
-0.27612799 -0.25632447 1.177 7.7447776e-39
-0.31280002 -0.24018572 1.1730001 9.3099565e-39
-0.30494404 -0.24154615 1.174778 9.0330249e-39
-0.29499334 -0.24209882 1.1755 8.6653228e-39
-0.283409 -0.24532326 1.1762002 8.850063e-39
-0.27736765 -0.24717049 1.1743335 8.6663864e-39
-0.16589658 -0.24650002 1.1754001 1.6414075e-38
-0.35361719 -0.23462826 1.1750001 7.4667656e-39
-0.3443484 -0.23456819 1.1762002 9.5865518e-39
-0.33515507 -0.23740922 1.1752224 9.9557001e-39
-0.32619748 -0.23774764 1.1756668 9.8631485e-39
-0.31725559 -0.23747717 1.1743335 9.4954128e-39
-0.20401335 -0.18047334 1.177 1.5644516e-39
-0.21186002 -0.17262667 1.177 3.2192758e-39
-0.20620494 -0.17482641 1.1767144 2.6678999e-39
-0.21186002 -0.16926382 1.177 3.1281606e-39
-0.20849715 -0.16926382 1.177 2.8530128e-39
-0.14124 -0.12554668 1.177 3.5956296e-39
-0.13440442 -0.12383749 1.1733639 3.5952596e-39
-0.12534344 -0.12489658 1.1730002 4.5172117e-39
-0.11819372 -0.12310916 1.1730002 5.2512048e-39
-0.13440192 -0.11871906 1.1760001 2.85771e-39
-0.12543906 -0.11722445 1.1760001 3.963689e-39
-0.11521059 -0.11554229 1.1756002 3.9622541e-39
-0.10754305 -0.11246001 1.1738001 3.7753643e-39
-0.11097429 -0.10873239 1.177 4.1445224e-39
-0.10817191 -0.10705096 1.177 7.4606447e-39
-0.27584004 -0.30070481 1.187 6.0863801e-39
-0.31366956 -0.29215431 1.1890001 1.9364543e-39
-0.30453336 -0.29267192 1.1865001 2.1201323e-39
-0.29455563 -0.29275295 1.1850001 2.5818448e-39
-0.28432986 -0.29489368 1.1863334 4.6097773e-39
-0.27504203 -0.29634002 1.1841112 5.9005287e-39
-0.26881811 -0.2958124 1.1810001 6.542322e-39
-0.3132166 -0.28785127 1.189 2.5832531e-39
-0.30407146 -0.285088 1.1842941 3.4097838e-39
-0.2969372 -0.28512719 1.1810001 3.2250534e-39
-0.30234572 -0.2796981 1.189 4.5168586e-39
-0.29364741 -0.27600202 1.1846364 4.7023429e-39
-0.28512716 -0.27163005 1.1810001 5.1636755e-39
-0.29107305 -0.26505622 1.1876668 6.2696602e-39
-0.28431976 -0.26574582 1.1838236 6.0856304e-39
-0.27781621 -0.26319432 1.1810001 6.455492e-39
-0.2927137 -0.25541621 1.1866668 7.6529575e-39
-0.28356332 -0.25563604 1.1812353 7.7437084e-39
-0.1725443 -0.25287479 1.188 1.6411561e-38
-0.16623792 -0.25240442 1.1842 1.9818455e-38
-0.35297477 -0.24115478 1.186 8.7571415e-39
-0.34584674 -0.24278955 1.1872859 9.8631289e-39
-0.33541051 -0.24280667 1.1858001 9.9546211e-39
-0.32445845 -0.24353431 1.1856668 9.3110496e-39
-0.315016 -0.24536477 1.1845 8.8500616e-39
-0.30399567 -0.24749088 1.1866001 8.3887317e-39
-0.29370955 -0.24772631 1.1834 8.2979766e-39
-0.28831398 -0.24782257 1.1810001 8.3898121e-39
-0.17424248 -0.24817772 1.1834002 1.7422817e-38
-0.16983905 -0.24857239 1.1810001 1.7338187e-38
-0.35430002 -0.23844954 1.1810001 7.1880305e-39
-0.3464267 -0.23788716 1.1810001 9.4947079e-39
-0.20133239 -0.18108667 1.1810001 1.6605793e-39
-0.20182097 -0.17405906 1.1816669 1.6566277e-39
-0.19717291 -0.17297448 1.1842728 4.9854206e-39
-0.21180172 -0.16623488 1.1842002 3.1281634e-39
-0.20519997 -0.16562864 1.1849999 2.4856639e-39
-0.19930573 -0.16544859 1.1850001 1.5687704e-39
-0.20374149 -0.15618148 1.1890001 2.3938284e-39
-0.16476451 -0.12207715 1.1884286 1.9350208e-39
-0.1551362 -0.12116477 1.189 1.9350264e-39
-0.14436573 -0.12248059 1.1842002 2.9488294e-39
-0.16268542 -0.11814509 1.189 1.567683e-39
-0.1533244 -0.11640877 1.189 2.2101686e-39
-0.14439954 -0.11506288 1.1845 2.2101784e-39
-0.13501048 -0.1136324 1.1813334 2.1190533e-39
-0.12484857 -0.1129261 1.1810001 2.7651514e-39
-0.11810001 -0.11135144 1.1810001 3.0417215e-39
-0.14369239 -0.10805 1.1880001 3.2253925e-39
-0.1349338 -0.10630116 1.1866002 3.4105026e-39
-0.12503113 -0.10509493 1.1844999 3.4090789e-39
-0.11521007 -0.10469788 1.182111 5.5302888e-39
-0.13022381 -0.09851715 1.189 4.6976401e-39
-0.12464902 -0.095903963 1.1890001 5.7146801e-39
-0.11774763 -0.097433344 1.1850002 8.7556898e-39
-0.30324003 -0.30210003 1.197 3.6892713e-39
-0.29520461 -0.304317 1.196 4.5172524e-39
-0.2852354 -0.30472693 1.1950001 6.1782184e-39
-0.27836668 -0.30563527 1.1930001 8.3937582e-39
-0.31638479 -0.29533857 1.1950001 1.8442741e-39
-0.30493125 -0.29810953 1.1938 2.9506217e-39
-0.29618165 -0.29813051 1.1941429 3.7803824e-39
-0.28745624 -0.29768193 1.1930001 4.5186621e-39
-0.31516254 -0.28482032 1.1946667 3.1349975e-39
-0.30677146 -0.28063905 1.1930001 4.1487935e-39
-0.31122002 -0.27588001 1.197 3.7803669e-39
-0.305098 -0.27509156 1.1963335 4.7920021e-39
-0.29774678 -0.27296245 1.1947778 5.0689632e-39
-0.30552 -0.26448002 1.1970003 6.821399e-39
-0.29727241 -0.26540419 1.1950001 6.6373651e-39
-0.17214002 -0.26106003 1.197 1.853527e-38
-0.16872001 -0.26106003 1.197 1.9819534e-38
-0.31385323 -0.25267664 1.1958573 8.2979612e-39
-0.30513716 -0.25504336 1.1955001 7.7447958e-39
-0.29881811 -0.25450668 1.1930001 7.7448015e-39
-0.18095715 -0.25265908 1.1950001 1.3274729e-38
-0.17526478 -0.25683272 1.1950001 1.4565847e-38
-0.16815621 -0.25791526 1.1930001 1.8899025e-38
-0.36017239 -0.24428096 1.1930001 4.5154545e-39
-0.35478765 -0.24562383 1.194 8.9433306e-39
-0.34692797 -0.24682891 1.1943334 1.0323385e-38
-0.33540097 -0.24671869 1.1938 9.7709487e-39
-0.32835907 -0.24655335 1.1930001 9.4954436e-39
-0.31926954 -0.24882573 1.1930001 8.6663934e-39
-0.21340507 -0.16229077 1.1964287 2.761899e-39
-0.20565049 -0.16020286 1.1930001 2.853003e-39
-0.21306489 -0.15449536 1.1951818 3.2210737e-39
-0.20451431 -0.15262827 1.1930001 2.7618878e-39
-0.21242005 -0.14630003 1.1970001 2.9462861e-39
-0.20422289 -0.14575717 1.1970003 2.9459133e-39
-0.19808519 -0.14390998 1.1961111 1.6602514e-39
-0.21166001 -0.13262002 1.197 3.4980123e-39
-0.20178001 -0.13794 1.197 2.1204771e-39
-0.19950001 -0.13794 1.197 1.2914535e-39
-0.18354002 -0.12289201 1.197 3.7781921e-39
-0.1739226 -0.12292913 1.1935714 2.4867471e-39
-0.16626255 -0.12460224 1.1930001 2.8544548e-39
-0.15462595 -0.12377851 1.1947778 2.8555352e-39
-0.14808351 -0.12763208 1.1930001 3.6882162e-39
-0.18297002 -0.11913001 1.197 4.1480494e-39
-0.17445649 -0.11566851 1.1962003 2.8558799e-39
-0.1654187 -0.11415796 1.1947147 1.7513484e-39
-0.1557537 -0.11337638 1.1937273 2.4867443e-39
-0.16473001 -0.10830001 1.197 1.9371802e-39
-0.15419558 -0.10747969 1.1963334 3.5920212e-39
-0.14538573 -0.10399282 1.1951818 3.8696815e-39
-0.13666229 -0.10209773 1.1938 4.0544455e-39
-0.14355235 -0.094093852 1.1970003 4.9745717e-39
-0.13456047 -0.094279759 1.195737 5.158956e-39
-0.12838954 -0.092031434 1.1930001 4.7005268e-39
-0.15276001 -0.087780006 1.197 5.527021e-39
-0.14820001 -0.087780006 1.197 5.2511656e-39
-0.12838954 -0.089759052 1.1930001 5.435215e-39
-0.30272192 -0.31074667 1.204 3.0461118e-39
-0.29878289 -0.31023049 1.202 4.0631266e-39
-0.3113378 -0.30217206 1.2033334 2.9492022e-39
-0.3055796 -0.30688792 1.2042859 3.6867644e-39
-0.29878289 -0.30794096 1.202 4.1448755e-39
-0.33193716 -0.29748002 1.2060001 1.9364557e-39
-0.32600474 -0.29554233 1.2049092 2.027585e-39
-0.3193886 -0.29878289 1.202 1.6595325e-39
-0.3227486 -0.28714287 1.2060001 2.3985199e-39
-0.31755698 -0.2813825 1.202 3.4094278e-39
-0.32045144 -0.27565718 1.2060001 4.9745843e-39
-0.3150385 -0.27405605 1.202 4.883846e-39
-0.30794096 -0.2713086 1.202 5.8990728e-39
-0.16828001 -0.27588764 1.202 2.1664532e-38
-0.32045144 -0.26532 1.2060001 7.5596661e-39
-0.31480956 -0.26558483 1.2019999 7.0054217e-39
-0.18032573 -0.26072574 1.2060001 1.1428294e-38
-0.17328811 -0.26523528 1.2030001 1.9454714e-38
-0.16846667 -0.26702797 1.2033334 2.1295395e-38
-0.3514629 -0.25153717 1.2060001 1.0599625e-38
-0.34388462 -0.25212231 1.2044001 1.0047896e-38
-0.33497992 -0.2528286 1.2041819 9.4025207e-39
-0.32507539 -0.25346267 1.2042223 8.7578702e-39
-0.31546372 -0.25822562 1.2020001 7.9288088e-39
-0.18374795 -0.257094 1.2033334 1.0237266e-38
-0.17972763 -0.25757146 1.202 1.2813713e-38
-0.3623448 -0.24882668 1.204 5.0664927e-39
-0.35831049 -0.24841335 1.202 9.7694942e-39
-0.21178097 -0.15912192 1.202 2.3952689e-39
-0.21521525 -0.14309525 1.2020001 2.8537387e-39
-0.20834669 -0.14309525 1.2020001 2.9466364e-39
-0.19499114 -0.1415689 1.202 5.4428156e-39
-0.21361259 -0.13760039 1.202 3.1295871e-39
-0.205294 -0.13470031 1.2019999 2.4870988e-39
-0.19464931 -0.13510929 1.2022499 3.2275827e-39
-0.2113865 -0.12463599 1.2055557 3.6816819e-39
-0.20426714 -0.12513295 1.2033331 3.0384775e-39
-0.19460954 -0.12477906 1.2019999 2.7629808e-39
-0.18774095 -0.12563762 1.202 3.9597191e-39
-0.21018858 -0.11830287 1.2060001 3.6834854e-39
-0.20317596 -0.11551742 1.2052729 3.0384761e-39
-0.19481263 -0.11459263 1.2032498 2.3952871e-39
-0.18568039 -0.11424726 1.202 4.5161257e-39
-0.17926972 -0.11378934 1.202 3.8707465e-39
-0.20100002 -0.10796572 1.2060001 3.2214296e-39
-0.19594631 -0.10865486 1.2060002 2.7622634e-39
-0.18492001 -0.10911429 1.2060002 4.5161285e-39
-0.17422143 -0.10716714 1.2035002 3.3164993e-39
-0.16516477 -0.10494604 1.2043334 3.5920142e-39
-0.15625145 -0.103784 1.2028 3.7764069e-39
-0.14996383 -0.10302858 1.202 4.0522693e-39
-0.16298972 -0.095270485 1.2052001 5.4344709e-39
-0.15571414 -0.095031835 1.2021998 5.2504439e-39
-0.14672035 -0.095587634 1.2019999 4.9752948e-39
-0.15797716 -0.088146672 1.202 5.6184964e-39
-0.14424002 -0.088146672 1.202 5.4366317e-39
-0.3444159 -0.31345719 1.2190001 2.4856975e-39
-0.33724058 -0.31340438 1.2168573 2.0272277e-39
-0.32390574 -0.31229621 1.2190001 2.7662276e-39
-0.31524378 -0.31408125 1.2169167 3.5012984e-39
-0.30768573 -0.31229526 1.21 3.2236703e-39
-0.35176858 -0.30416954 1.2190001 2.5803916e-39
-0.34578162 -0.30579722 1.2168126 2.6708062e-39
-0.33464554 -0.30465114 1.2116667 2.0279465e-39
-0.32504311 -0.30590326 1.2133572 2.2126965e-39
-0.31659606 -0.30563229 1.2121251 2.6729866e-39
-0.3429324 -0.29890907 1.2165 2.0290087e-39
-0.33531004 -0.29509139 1.2143847 1.9357551e-39
-0.32897145 -0.29087812 1.2120001 2.1208764e-39
-0.33145195 -0.28559431 1.2190001 2.7619018e-39
-0.32636034 -0.28477389 1.2127777 2.8555338e-39
-0.33186659 -0.27415061 1.2190001 6.7284579e-39
-0.32610509 -0.27476943 1.2127777 5.9894649e-39
-0.19155715 -0.27050191 1.2190001 7.4473913e-39
-0.18644898 -0.27235946 1.2190001 5.8998085e-39
-0.17489925 -0.27312595 1.2162001 2.037704e-38
-0.34418178 -0.26180971 1.2181667 9.7709333e-39
-0.33444938 -0.26437292 1.217077 8.665299e-39
-0.32616714 -0.26502949 1.2132727 8.0195695e-39
-0.19155715 -0.26585811 1.2190001 5.9912824e-39
-0.18486072 -0.26573798 1.213143 7.5557313e-39
-0.17804763 -0.2680324 1.2113335 1.5126222e-38
-0.37034383 -0.25424859 1.2190001 2.4853247e-39
-0.36493754 -0.25496879 1.2180001 7.0990873e-39
-0.35568607 -0.2559436 1.2147778 1.0232287e-38
-0.34617415 -0.25622898 1.2108001 1.0047536e-38
-0.33534288 -0.25755715 1.21 9.2181267e-39
-0.32612383 -0.25813335 1.21 8.573832e-39
-0.21220276 -0.11474422 1.21 3.9579185e-39
-0.20765905 -0.11362477 1.21 3.5912827e-39
-0.21267369 -0.10488893 1.2136251 3.6838413e-39
-0.20491382 -0.10534117 1.213643 3.6841888e-39
-0.19466688 -0.10394031 1.2126669 3.0399236e-39
-0.18488485 -0.10399447 1.2133125 5.8050597e-39
-0.17558289 -0.10241265 1.2107273 4.7898147e-39
-0.16863176 -0.1010254 1.21 5.3411892e-39
-0.21235368 -0.097505406 1.2140001 4.1433719e-39
-0.20391756 -0.095273472 1.2170001 4.7894588e-39
-0.19453762 -0.094951078 1.215875 3.4061922e-39
-0.18572694 -0.095376328 1.2183334 8.4837734e-39
-0.17572674 -0.094984777 1.2133335 5.2518747e-39
-0.16824761 -0.094495244 1.21 5.2504467e-39
-0.20002097 -0.089026675 1.2140001 5.4341037e-39
-0.19573659 -0.08892896 1.2190001 4.1433803e-39
-0.18575241 -0.08939334 1.2190001 8.3912288e-39
-0.35059336 -0.32030955 1.223 2.3020167e-39
-0.36225718 -0.31317717 1.2270001 2.9491741e-39
-0.35443565 -0.31453377 1.2250001 2.854459e-39
-0.34662649 -0.31725621 1.2238001 2.3927718e-39
-0.33426163 -0.3159959 1.2243335 2.4863967e-39
-0.32633656 -0.3159568 1.2233635 2.4885715e-39
-0.36371791 -0.3073343 1.2270001 3.4090859e-39
-0.3564178 -0.30554467 1.2240909 2.8559023e-39
-0.34940287 -0.30032289 1.2270001 2.0286388e-39
-0.34343076 -0.29586762 1.2255001 2.0272207e-39
-0.33778098 -0.29119051 1.223 1.8442629e-39
-0.34083337 -0.28435242 1.2270002 3.9579325e-39
-0.33586431 -0.28454909 1.2245002 3.4983879e-39
-0.34381467 -0.27518952 1.2254002 8.0191995e-39
-0.33739272 -0.27527207 1.223 7.0976033e-39
-0.19218573 -0.27488384 1.223 9.2220825e-39
-0.18519716 -0.27604863 1.223 6.7285392e-39
-0.1750019 -0.27766669 1.2250001 2.221914e-38
-0.37160575 -0.26059145 1.2270001 2.2130763e-39
-0.36412367 -0.26369202 1.2262001 9.587614e-39
-0.35478365 -0.26410958 1.2238001 1.0414508e-38
-0.34540182 -0.26737875 1.2247778 9.5865308e-39
-0.33894575 -0.26906002 1.223 8.7567646e-39
-0.37155908 -0.2574124 1.223 2.4853275e-39
-0.36573523 -0.25915954 1.223 7.2820366e-39
-0.35991144 -0.25974193 1.223 1.0232281e-38
-0.21175097 -0.10383334 1.2250001 3.868227e-39
-0.2084924 -0.10249905 1.223 4.0518965e-39
-0.21216287 -0.096171916 1.2240001 4.5121516e-39
-0.2084924 -0.093180954 1.223 5.0663974e-39
-0.18519716 -0.092016198 1.223 9.4958234e-39
-0.20516382 -0.088010006 1.224 5.1596692e-39
-0.19483145 -0.086040251 1.2250001 3.7757034e-39
-0.18850765 -0.086673342 1.2243335 7.7415336e-39
-0.3578667 -0.32032001 1.2320001 2.5800343e-39
-0.38100195 -0.31272763 1.2360001 4.7001652e-39
-0.37458965 -0.31392342 1.2355556 3.8700528e-39
-0.36625201 -0.31655186 1.234286 3.0413684e-39
-0.3578667 -0.31797335 1.2320001 2.8555366e-39
-0.38374862 -0.30958858 1.2360001 4.4246489e-39
-0.37461811 -0.30874953 1.2350001 4.6068892e-39
-0.36608261 -0.3050032 1.2333335 3.0410167e-39
-0.35579908 -0.3016924 1.2350001 2.0268549e-39
-0.35168093 -0.29463145 1.2350001 2.1183303e-39
-0.34786004 -0.29345906 1.2350001 2.0264976e-39
-0.35471243 -0.28408384 1.2360001 5.8954672e-39
-0.34703118 -0.28569102 1.2333335 4.5107475e-39
-0.18457374 -0.28144383 1.2344002 9.7843241e-39
-0.17717335 -0.2816 1.2320001 2.184892e-38
-0.36279544 -0.2733326 1.2360001 9.5872567e-39
-0.35492432 -0.27500719 1.2340002 9.125931e-39
-0.34848002 -0.27573335 1.2320001 8.6649347e-39
-0.37458032 -0.26614183 1.2346668 4.05517e-39
-0.36549652 -0.26805651 1.2326669 9.6805299e-39
-0.3578667 -0.26869336 1.2320001 1.0598896e-38
-0.21002668 -0.085653342 1.2320001 5.3436807e-39
-0.20348637 -0.08335048 1.2326669 5.3437144e-39
-0.19500715 -0.082232863 1.2335001 3.7774747e-39
-0.18873525 -0.082007632 1.2360001 9.0315928e-39
-0.20129144 -0.078868575 1.2360001 5.3440927e-39
-0.19563596 -0.07556735 1.2342858 4.3302883e-39
-0.18683769 -0.075440422 1.2355556 8.7686602e-39
-0.19480927 -0.068410359 1.2354287 4.4206707e-39
-0.18716574 -0.066626295 1.2360001 6.6431651e-39
-0.38329336 -0.32277429 1.2459999 3.498776e-39
-0.3760694 -0.32194042 1.2434286 3.3165386e-39
-0.36544654 -0.32401511 1.2431667 3.0406537e-39
-0.35927147 -0.32607144 1.245 2.3023894e-39
-0.38590902 -0.3158392 1.2399999 3.4101467e-39
-0.37554288 -0.31767622 1.24 3.4079985e-39
-0.38380957 -0.30822858 1.24 3.7803796e-39
-0.37459308 -0.30531743 1.2455 3.2253995e-39
-0.36476749 -0.30213258 1.2408333 1.9357523e-39
-0.35782859 -0.30114287 1.24 2.0268563e-39
-0.36546797 -0.29555339 1.2452633 3.0384915e-39
-0.35625398 -0.29563177 1.2399999 2.2108832e-39
-0.18527049 -0.29096669 1.247 2.0651102e-38
-0.37291574 -0.28370142 1.2490001 7.3724134e-39
-0.36518455 -0.28547502 1.2429166 5.9894649e-39
-0.35782859 -0.2881524 1.24 4.3266996e-39
-0.19090001 -0.28575715 1.245 1.1444564e-38
-0.1852271 -0.28671962 1.2432858 1.7980352e-38
-0.17832382 -0.28697145 1.24 2.1204272e-38
-0.38166651 -0.27506381 1.2438 1.6581004e-39
-0.37598863 -0.2744416 1.2425454 6.1763883e-39
-0.36675134 -0.27673653 1.2399999 8.9418845e-39
-0.19131431 -0.073219053 1.24 3.4101621e-39
-0.1936762 -0.063771427 1.24 3.5923757e-39
-0.18540953 -0.06259048 1.24 1.291704e-38
-0.19151334 -0.051149528 1.2490001 4.1383791e-39
-0.1891343 -0.051149528 1.2490001 5.6953086e-39
-0.19270286 -0.041633338 1.2490001 4.1462516e-39
-0.18794477 -0.04282286 1.2490001 4.2352298e-39
-0.38441467 -0.33261582 1.2590001 4.7930797e-39
-0.37393159 -0.33419174 1.2590001 3.7774887e-39
-0.36823815 -0.33161336 1.2540001 3.0391978e-39
-0.39250669 -0.3266924 1.2565 2.6704601e-39
-0.38527662 -0.32795089 1.2540001 3.9629772e-39
-0.37500572 -0.3284286 1.2540001 4.0558776e-39
-0.36903432 -0.3284286 1.2540001 3.317228e-39
-0.39156955 -0.30454671 1.2573335 1.1996222e-39
-0.3855013 -0.30518115 1.2576845 1.9357397e-39
-0.37779242 -0.3029505 1.2540001 2.5800427e-39
-0.39208859 -0.29376668 1.2590001 1.3796862e-39
-0.38580555 -0.29474822 1.2580626 2.2116049e-39
-0.37620008 -0.2949886 1.2540001 3.9615282e-39
-0.19228001 -0.29021144 1.2540001 1.9728434e-38
-0.38460711 -0.28457326 1.2547143 3.0406579e-39
-0.37763315 -0.28591201 1.2540001 6.6362847e-39
