# .PCD v0.7 - Point Cloud Data file format
VERSION 0.7
FIELDS x y z rgb
SIZE 4 4 4 4
TYPE F F F F
COUNT 1 1 1 1
WIDTH 147
HEIGHT 1
VIEWPOINT 0 0 0 1 0 0 0
POINTS 147
DATA ascii
-0.14123429 -0.34990478 1.3360001 3.3341697e-39
-0.13868953 -0.34990478 1.3360001 1.5007696e-39
-0.14473498 -0.35478613 1.3448573 5.1737677e-39
-0.13726573 -0.35663432 1.3470001 1.7790943e-38
-0.14314666 -0.34892002 1.342 4.1491607e-39
-0.15390667 -0.36084002 1.358 3.1375521e-39
-0.13452491 -0.36444601 1.3562858 2.2314214e-38
-0.15275288 -0.35642239 1.3535001 2.9524252e-39
-0.14807621 -0.35924575 1.3520001 2.2209614e-39
-0.13262478 -0.35924575 1.3520001 2.028737e-38
-0.16285716 -0.39737147 1.368 8.8396724e-39
-0.1433143 -0.37131432 1.368 2.1395873e-38
-0.13680001 -0.37392002 1.368 1.91554e-38
-0.16285716 -0.36349717 1.368 3.7782131e-39
-0.15552446 -0.36348003 1.3646667 3.7836376e-39
-0.14572179 -0.36690396 1.366125 1.5312044e-38
-0.1388962 -0.36865908 1.363 2.2495027e-38
-0.27490288 -0.35828573 1.368 8.1279571e-39
-0.26398003 -0.39006004 1.3790001 4.5094485e-39
-0.16285335 -0.39794004 1.3790001 3.6825129e-39
-0.19043335 -0.38218004 1.3790001 3.0406649e-39
-0.18780668 -0.38349336 1.3790001 2.7633536e-39
-0.26923335 -0.37167335 1.3790001 9.4893242e-39
-0.18799812 -0.37730479 1.3740001 3.3175881e-39
-0.15334164 -0.37352726 1.376143 8.3988547e-39
-0.14494134 -0.37558326 1.3760002 2.1015556e-38
-0.27620551 -0.36674693 1.37775 1.7338552e-38
-0.16396509 -0.36772829 1.3773334 3.4105138e-39
-0.15702859 -0.36770859 1.3740001 3.7808154e-39
-0.27040479 -0.39307621 1.3850001 5.9977536e-39
-0.26578811 -0.39307621 1.3850001 7.0991196e-39
-0.16751906 -0.39967147 1.3850001 7.2781873e-39
-0.28535399 -0.38780004 1.3850001 9.3978306e-39
-0.27128416 -0.38604128 1.3850001 8.2922019e-39
-0.26644763 -0.38516197 1.3850001 8.9458572e-39
-0.18070954 -0.38120478 1.3850001 2.1219344e-39
-0.14509524 -0.38120478 1.3850001 2.1278775e-38
-0.13850001 -0.38120478 1.3850001 1.4423198e-38
-0.28095716 -0.37065241 1.3850001 2.0833687e-38
-0.27472168 -0.37616843 1.3850002 1.4933144e-38
-0.26688731 -0.37768731 1.3850001 6.8246907e-39
-0.18202859 -0.37592858 1.3850001 3.8707717e-39
-0.17367463 -0.37153178 1.3850001 4.1470069e-39
-0.16488098 -0.37329051 1.3850001 3.0460936e-39
-0.15872541 -0.37592861 1.3850001 4.9886688e-39
-0.28095716 -0.36801431 1.3850001 2.101629e-38
-0.26812065 -0.40107307 1.3960001 9.0412996e-39
-0.19100827 -0.40195939 1.3960001 1.0969404e-38
-0.18657653 -0.40107304 1.3960001 1.5301211e-38
-0.17283809 -0.40417528 1.396 1.3370578e-38
-0.16052666 -0.40330955 1.3930001 3.2207654e-39
-0.15821335 -0.40284574 1.3960001 7.091149e-39
-0.29256192 -0.39184764 1.3900001 1.7050376e-38
-0.28483829 -0.39444387 1.3910911 1.2996669e-38
-0.276434 -0.39345622 1.3910002 5.5342573e-39
-0.26207468 -0.39351317 1.3912001 8.2094608e-39
-0.25819358 -0.39433679 1.396 1.2456485e-38
-0.19100827 -0.39486858 1.3960001 5.8137659e-39
-0.1854974 -0.39323789 1.3937501 6.737862e-39
-0.1748324 -0.39453623 1.396 8.3894352e-39
-0.16463919 -0.39566129 1.394125 1.4289984e-38
-0.15458739 -0.39462689 1.396 1.9628998e-38
-0.14491811 -0.39220959 1.3960001 2.3314197e-38
-0.13960001 -0.39220956 1.396 2.3204061e-38
-0.29217952 -0.38514337 1.3945 1.6313527e-38
-0.28590709 -0.38429829 1.3924001 1.4096918e-38
-0.27700716 -0.38489765 1.3900002 1.2531748e-38
-0.26282936 -0.38642555 1.3924001 1.1250428e-38
-0.25837085 -0.38866419 1.3960001 7.2752488e-39
-0.20075811 -0.38689145 1.396 3.6863468e-39
-0.19523287 -0.38780242 1.3945 3.0410335e-39
-0.18434049 -0.38555956 1.3900002 2.4889471e-39
-0.17501746 -0.385205 1.3913847 4.7978063e-39
-0.1642724 -0.38550764 1.3910002 1.0332069e-38
-0.15510859 -0.38578668 1.3920001 2.0200218e-38
-0.14577334 -0.386971 1.3915002 2.1667035e-38
-0.13797334 -0.38738954 1.3930001 1.0698732e-38
-0.29116577 -0.37625527 1.3960001 1.7508151e-38
-0.28503242 -0.37605968 1.3920002 1.7514256e-38
-0.26343811 -0.37993336 1.3900001 2.4800741e-39
-0.18417068 -0.37867051 1.3912001 3.6863763e-39
-0.17428933 -0.37744859 1.3906002 3.6856826e-39
-0.16503493 -0.37905082 1.3900002 4.1556767e-39
-0.28726667 -0.36934289 1.3900001 1.7518243e-38
-0.25192001 -0.41406003 1.4070001 1.8345493e-38
-0.18090001 -0.41138002 1.4070001 1.7619029e-38
-0.17822002 -0.41138002 1.4070001 1.9724781e-38
-0.26356414 -0.40538192 1.4047778 1.3270455e-38
-0.25795001 -0.40468001 1.4070001 1.069873e-38
-0.20770001 -0.40066004 1.4070001 3.5048843e-39
-0.19876669 -0.40155336 1.4070001 6.4576486e-39
-0.183245 -0.40635499 1.4070001 1.6599172e-38
-0.17623775 -0.40408802 1.4040002 1.1519869e-38
-0.15622286 -0.4019067 1.4020001 1.1995077e-38
-0.14874001 -0.40066004 1.4070001 5.5141515e-40
-0.13534001 -0.40066004 1.4070001 5.550277e-40
-0.25444686 -0.39550942 1.4061668 7.2820479e-39
-0.24522001 -0.39530003 1.4070001 3.8701033e-39
-0.20502003 -0.39530003 1.4070002 3.5934576e-39
-0.19706424 -0.3962267 1.4048572 4.4239931e-39
-0.18226002 -0.39856857 1.4020001 9.8649842e-39
-0.17491621 -0.39656574 1.4020001 8.3890484e-39
-0.15088192 -0.3992362 1.4020001 9.4393006e-40
-0.14363347 -0.39771023 1.4020002 6.7154875e-39
-0.29508764 -0.3845486 1.4020001 1.7231898e-38
-0.25770098 -0.3885543 1.4020001 9.31345e-40
-0.24522002 -0.38994002 1.4070001 4.055191e-39
-0.20636001 -0.38994002 1.4070001 3.5959729e-39
-0.25528574 -0.41289717 1.4145001 1.5119737e-38
-0.24895716 -0.41582575 1.4130001 1.9265295e-38
-0.25442955 -0.40502286 1.4160001 1.3002136e-38
-0.24596001 -0.40272576 1.419 2.8585157e-39
-0.2310943 -0.40137431 1.419 4.7012709e-39
-0.22352631 -0.40191489 1.419 4.5143713e-39
-0.21361659 -0.40535718 1.4178001 4.9800144e-39
-0.20535603 -0.40398344 1.4130001 5.4435078e-39
-0.1964743 -0.40506002 1.4130001 8.1128245e-39
-0.15273087 -0.40648061 1.4142002 6.1889972e-39
-0.14533716 -0.40506002 1.4130001 1.6631563e-39
-0.13860857 -0.40236861 1.4130001 3.6810289e-40
-0.25434005 -0.39564002 1.4130001 4.0537701e-39
-0.24471144 -0.39584792 1.4137501 3.9615703e-39
-0.23482312 -0.39520967 1.4162728 4.0555175e-39
-0.22514804 -0.39596862 1.4189999 4.3303191e-39
-0.21473758 -0.39544782 1.4130002 3.7785859e-39
-0.20589429 -0.39698574 1.4130001 3.778223e-39
-0.23011716 -0.38891146 1.4130001 3.8711445e-39
-0.22742572 -0.38891146 1.4130001 3.9633373e-39
-0.24835716 -0.42207146 1.4250001 1.9264929e-38
-0.25514287 -0.41257146 1.4250001 1.8533466e-38
-0.24700001 -0.41935718 1.4250001 1.94486e-38
-0.21578573 -0.41121432 1.4250001 7.7436832e-39
-0.25378573 -0.40850002 1.4250001 1.5316356e-38
-0.24292859 -0.40307146 1.4250001 3.3244727e-39
-0.2354643 -0.4044286 1.4250001 4.6108745e-39
-0.22664289 -0.40578574 1.4250001 4.8856565e-39
-0.21714288 -0.40850002 1.4250001 5.6275221e-39
-0.2356905 -0.39402384 1.4250001 3.7782202e-39
-0.25044858 -0.42015144 1.437 1.9540803e-38
-0.24634287 -0.42015144 1.437 1.9911365e-38
-0.25156862 -0.41488767 1.4330001 1.8440198e-38
-0.24541715 -0.41423145 1.4364002 1.0695081e-38
-0.22324972 -0.41289431 1.4346001 7.1901689e-39
-0.24352287 -0.40724 1.4325001 2.4954407e-39
-0.24122573 -0.39386573 1.4310001 3.2268541e-39
-0.24050002 -0.41366002 1.4430001 3.9601367e-39
-0.2226343 -0.41915718 1.4430001 4.0609405e-39
